# .PCD v0.7 - Point Cloud Data file format
VERSION 0.7
FIELDS x y z rgb
SIZE 4 4 4 4
TYPE F F F F
COUNT 1 1 1 1
WIDTH 348
HEIGHT 1
VIEWPOINT 0 0 0 1 0 0 0
POINTS 348
DATA ascii
-0.13580184 -0.058751747 1.0191005 0
-0.1352682 -0.042870022 1.0150962 0
-0.1300626 -0.031512994 1.0093999 0
-0.13033317 -0.011527302 1.0115001 0
-0.12868783 -0.056340717 1.0161002 0
-0.12433003 -0.042193051 0.99906665 0
-0.1188425 -0.037449613 0.9900158 0
-0.11846888 -0.057959013 1.00535 0
-0.11634777 -0.01777626 0.98734999 0
-0.11697821 -0.0047535286 0.9927001 0
-0.11780882 0.055708937 1.0187917 0
-0.11949231 0.072437301 1.0333501 0
-0.11153891 -0.026366558 0.98330003 0
-0.11104157 -0.064149112 0.99829996 0
-0.1103019 -0.052800812 0.99164999 0
-0.11225399 0.041847341 1.0091999 0
-0.10512163 -0.041558873 0.9840501 0
-0.10732225 0.028381694 1.0046504 0
-0.1081448 0.059816271 1.01235 0
-0.10842788 0.066679738 1.0150001 0
-0.10566914 -0.09159629 1.0100001 0
-0.1047066 -0.070922814 1.0008003 0
-0.10646828 0.07806024 1.0176382 0
-0.1006843 -0.013368334 0.98305005 0
-0.10071882 -0.084502041 1.005 0
-0.10120989 0.048549537 1.0099001 0
-0.09660171 -0.063331708 0.98557949 0
-0.097523108 0.01495933 0.99498004 0
-0.098617934 0.037288599 1.00615 0
-0.098887488 0.057390232 1.0089002 0
-0.095113628 0.0083655687 0.99270517 0
-0.096866496 0.066416956 1.0110004 0
-0.093672886 0.028269321 1.0006722 0
-0.095936164 0.092157349 1.02485 0
-0.094159722 -0.10476466 1.0301108 0
-0.091754727 -0.084401153 1.0038002 0
-0.089789473 -0.058793772 0.9823001 0
-0.089819193 -0.0047052843 0.98262513 0
-0.091369368 0.008423537 0.99958408 0
-0.088892587 -0.075007841 0.99650013 0
-0.09105961 0.091792539 1.0207927 0
-0.085166462 -0.024092466 0.97889984 0
-0.083222345 -0.052255042 0.98140013 0
-0.085096411 0.04824188 1.0035 0
-0.0852957 0.061647683 1.0058502 0
-0.085793242 -0.11707696 1.0386964 0
-0.084099539 -0.099067077 1.0181909 0
-0.080680788 -0.0089803683 0.97680008 0
-0.081333265 0.0017914433 0.98469955 0
-0.077883184 -0.032378118 0.96876323 0
-0.078521267 -0.024038319 0.97670013 0
-0.081608415 0.077865534 1.0151 0
-0.083198614 0.10217694 1.03488 0
-0.077586986 0.0061763031 0.99226421 0
-0.077258281 -0.092203908 1.0167 0
-0.075111605 -0.061339021 0.98845017 0
-0.074199721 -0.011127865 0.97644985 0
-0.076944917 0.086593099 1.0125762 0
-0.078276068 0.097166643 1.0300938 0
-0.073760875 -0.070841305 0.99965012 0
-0.071909636 0.015103181 1.0045477 0
-0.072736606 0.08913251 1.0161003 0
-0.070703208 -0.10812886 1.0190501 0
-0.070453428 -0.10103703 1.0154501 0
-0.067764923 -0.024038319 0.97670013 0
-0.069506392 0.037127394 1.0018002 0
-0.066480018 -0.0003793207 0.98959619 0
-0.06719546 0.02825729 1.0002465 0
-0.066808686 -0.11815853 1.0281999 0
-0.0650803 0.050356656 1.0016001 0
-0.065002218 -0.1258398 1.0355003 0
-0.061834227 -0.067635871 0.98503339 0
-0.060837179 -0.049468145 0.96914995 0
-0.061252587 -0.085027553 1.0112501 0
-0.059114419 -0.060563326 0.97594994 0
-0.059568711 -0.0047092349 0.98345011 0
-0.060831614 0.035007983 1.0042999 0
-0.061370689 0.077719793 1.0132002 0
-0.056305237 -0.038614832 0.96465003 0
-0.058073811 0.017150342 0.99495 0
-0.055506386 -0.072210595 0.98825634 0
-0.055368423 -0.015577041 0.98580009 0
-0.05287873 -0.067283407 0.9799 0
-0.054349236 0.039544005 1.0071502 0
-0.054697294 0.06212268 1.0136001 0
-0.05106033 -0.076425418 0.98646688 0
-0.050748456 -0.073799111 0.98044175 0
-0.050911933 -0.00037702225 0.98360002 0
-0.050088488 -0.10946901 1.0107 0
-0.048031829 -0.053740203 0.96920013 0
-0.049689554 0.030533615 1.00265 0
-0.050071143 0.073050417 1.01035 0
-0.046408519 -0.024119535 0.98000002 0
-0.04727513 0.015009245 0.99830008 0
-0.044992998 -0.088173166 0.99645567 0
-0.044360612 0.0039512822 0.98245013 0
-0.045647476 0.04414662 1.0109499 0
-0.043055683 0.017279623 1.0024501 0
-0.039352253 -0.062057514 0.96574992 0
-0.040130541 0.0082993722 0.98485005 0
-0.041033112 0.021794064 1.0070002 0
-0.04144568 0.082501486 1.017125 0
-0.038635872 -0.11960344 1.0023501 0
-0.038165607 -0.098519668 0.99014997 0
-0.037138376 -0.049179766 0.9634999 0
-0.036286365 -0.11034139 0.99845016 0
-0.03547775 -0.013275181 0.97619998 0
-0.036722474 0.057478406 1.01045 0
-0.033380501 -0.0068355203 0.97775012 0
-0.034418352 0.021818954 1.0081501 0
-0.034772556 0.073641494 1.0185251 0
-0.034959562 0.080803916 1.024003 0
-0.031236494 -0.082236044 0.97805005 0
-0.031105548 -0.077600889 0.97395009 0
-0.03077659 -0.055554993 0.96365011 0
-0.030800546 -0.049225707 0.96440011 0
-0.032306403 0.035260707 1.0115501 0
-0.032379854 0.046506342 1.0138502 0
-0.029040623 -0.030490559 0.97665012 0
-0.027901281 0.064342514 1.0134003 0
-0.024533138 -0.066504069 0.96855009 0
-0.02467118 -0.017535906 0.9740001 0
-0.025503267 0.03066152 1.0068501 0
-0.02570717 0.046554502 1.0149 0
-0.020980749 -0.11301783 1.0026842 0
-0.019402074 -0.14648341 1.0363251 0
-0.019000016 0.0577287 1.01485 0
-0.01599776 -0.060096156 0.96842206 0
-0.016065123 -0.043213092 0.97250015 0
-0.016132854 -0.03479109 0.97660005 0
-0.016330427 -0.00037892349 0.98856002 0
-0.016608611 0.030617362 1.0054001 0
-0.016791152 0.071252637 1.0164502 0
-0.014826308 -0.15322198 1.0355867 0
-0.014351895 -0.1306553 1.00245 0
-0.014191546 -0.0920792 0.99124992 0
-0.012192367 -0.13782704 1.0064498 0
-0.012108172 -0.12366635 0.99949998 0
-0.011867472 -0.071580335 0.97963059 0
-0.012104539 0.010621125 0.99920005 0
-0.012497002 0.079130955 1.0315968 0
-0.0097713936 -0.082891889 0.98584998 0
-0.0076732091 -0.11438348 0.99535 0
-0.0078027211 0.066492513 1.01215 0
-0.0055315234 -0.13756682 1.0045502 0
-0.0054023978 -0.071687713 0.9811002 0
-0.0053313645 -0.045154572 0.96820009 0
-0.0053858771 -0.036998879 0.9781 0
-0.0054012975 -0.024141688 0.98090017 0
-0.0054167146 -0.011210488 0.98369998 0
-0.0054158885 0.003955706 0.98354995 0
-0.0055452893 0.055066891 1.0070499 0
-0.0011395979 -0.16449872 1.0347809 0
-0.0011252234 -0.15792291 1.0217286 0
-0.0010666581 -0.053704161 0.96855009 0
-0.0010996192 0.023808893 0.99847949 0
0.0011091131 0.039542042 1.0071 0
0.0011076261 0.057211049 1.0057499 0
0.0033014037 -0.11703261 0.99925011 0
0.0032480459 -0.082660653 0.98310006 0
0.0054775961 -0.10993322 0.99475658 0
0.0053913831 -0.065071903 0.97910005 0
0.0054252492 0.0083027445 0.98525 0
0.0055260169 0.048244286 1.0035499 0
0.0075625852 -0.030626362 0.98100007 0
0.010077413 -0.16386774 1.0167247 0
0.009953768 -0.12867793 1.0042502 0
0.0097133126 -0.091033205 0.97999001 0
0.0096613737 -0.043313075 0.97475016 0
0.012220446 -0.15147583 1.0087677 0
0.011865284 -0.062937841 0.97944993 0
0.011863468 -0.019788316 0.97930002 0
0.012127555 0.030486414 1.0010999 0
0.012132403 0.045939837 1.0015 0
0.012150573 0.052636229 1.0030001 0
0.012258107 0.075389527 1.0118767 0
0.014135838 -0.10259144 0.98735887 0
0.014077728 -0.002542712 0.98330009 0
0.014428492 0.068426505 1.0078002 0
0.016590443 -0.14416876 1.0043001 0
0.016557401 -0.13725869 1.0023 0
0.016256573 -0.10875436 0.98408937 0
0.019114977 -0.17804822 1.0209905 0
0.019142952 -0.17155242 1.0224845 0
0.01880531 0.052712332 1.0044498 0
0.019039992 0.078010127 1.0169853 0
0.02040818 -0.082006544 0.97532064 0
0.020672439 -0.00037868973 0.98795003 0
0.020856928 0.028158987 0.99676669 0
0.021488123 0.083296947 1.026932 0
0.023383878 -0.16073421 1.0110999 0
0.023024544 -0.12098636 0.99556243 0
0.022722447 -0.10208659 0.98249996 0
0.022931747 0.012723784 0.99154997 0
0.024930816 -0.048071004 0.98425007 0
0.02496881 -0.022089858 0.98575008 0
0.02497776 -0.011237876 0.98610336 0
0.026259616 0.086373501 1.0367101 0
0.028045824 -0.17090906 1.0186501 0
0.027683774 -0.14655575 1.0055001 0
0.027729204 0.057290684 1.0071503 0
0.028941015 -0.092555553 0.9733001 0
0.028924659 -0.064649887 0.97275007 0
0.029233899 -0.035024438 0.98315012 0
0.030157169 0.06886103 1.0142002 0
0.032296821 -0.16298535 1.0112501 0
0.031781018 -0.12750557 0.99510014 0
0.031453665 -0.048100304 0.98485011 0
0.0316916 0.041146569 0.99230003 0
0.032462895 0.075730272 1.0164502 0
0.032716796 0.083091572 1.0244001 0
0.034095731 -0.13456598 0.99870002 0
0.033894978 0.025860721 0.99281991 0
0.035715379 0.0039524441 0.98273897 0
0.03854527 -0.13914634 1.0000001 0
0.037957143 -0.12400933 0.98474169 0
0.037609965 -0.11212933 0.97573471 0
0.037510339 -0.077537157 0.97315007 0
0.038029879 0.017006908 0.98662853 0
0.039229464 0.075827114 1.0177504 0
0.039907582 0.088540047 1.0353428 0
0.040829372 -0.15487358 1.0020001 0
0.039562114 -0.068803899 0.97090018 0
0.040106095 -0.050238896 0.98424995 0
0.040090475 -0.01554649 0.98386657 0
0.041965067 0.085803762 1.0298716 0
0.04179509 -0.086106516 0.97310007 0
0.042357735 -0.037305277 0.98620015 0
0.042222455 -0.022029351 0.98305005 0
0.044760723 -0.1335704 0.99131119 0
0.044570576 0.021363379 0.98709995 0
0.046856023 -0.011276016 0.98945016 0
0.04675895 0.01267053 0.98740017 0
0.047412463 0.041515615 1.0012001 0
0.047658704 0.048381291 1.0063999 0
0.047968891 0.064313963 1.0129502 0
0.048339084 -0.10564568 0.97540009 0
0.052027375 -0.16864404 1.0051501 0
0.050119989 -0.077150717 0.96830004 0
0.050145864 -0.07078895 0.96880007 0
0.053295523 0.083517402 1.02965 0
0.053048719 -0.11946578 0.98305005 0
0.052970469 -0.052265693 0.98160011 0
0.056102045 -0.141188 0.99886161 0
0.055797018 -0.13385597 0.99343079 0
0.055177469 0.0017872598 0.98240012 0
0.055233635 0.010453178 0.98340005 0
0.055676322 0.034554202 0.99128199 0
0.05689615 0.057623457 1.013 0
0.057272464 0.066988513 1.0197001 0
0.058596205 -0.15295604 1.0039002 0
0.056757607 -0.064626619 0.97240007 0
0.057463855 -0.017724952 0.98450005 0
0.058734141 0.046158325 1.0062631 0
0.059536148 -0.12377898 0.98291254 0
0.059235562 -0.10807589 0.97794998 0
0.059353672 -0.032750338 0.97989988 0
0.062805131 -0.16345647 1.0005 0
0.061415929 -0.097347535 0.97836971 0
0.063583523 0.057617772 1.0129004 0
0.06357529 -0.11890523 0.97843754 0
0.063738555 -0.043588571 0.98095018 0
0.066964611 0.079054505 1.0306002 0
0.067761913 -0.1781228 1.0086782 0
0.067129984 -0.15004984 0.99927151 0
0.066811539 -0.1383854 0.99453145 0
0.067612283 -0.1055482 0.97450018 0
0.067313947 -0.085849896 0.97020006 0
0.068205491 0.014779964 0.98304999 0
0.070836037 -0.14423095 0.98955011 0
0.0698267 -0.036898635 0.97545004 0
0.06984102 -0.028310388 0.97565013 0
0.071108557 0.023686755 0.99335718 0
0.071795285 0.046006348 1.00295 0
0.071606301 -0.090147018 0.97045004 0
0.072060063 -0.02188481 0.97659999 0
0.07249172 0.0017873507 0.98245013 0
0.076373026 -0.17305467 1.0050499 0
0.075897641 -0.15877791 0.99879426 0
0.07403636 -0.10552652 0.97430009 0
0.074583478 -0.063069567 0.98150015 0
0.074249119 -0.047721799 0.9770999 0
0.074252918 -0.0132881 0.97714996 0
0.074716456 0.014782971 0.98325002 0
0.077405073 0.07140556 1.0186317 0
0.076369993 -0.039097186 0.97669995 0
0.077876486 0.028136387 0.99596673 0
0.078891084 -0.13006011 0.98130018 0
0.078517236 -0.079967178 0.97665012 0
0.079128236 0.0061264187 0.98424995 0
0.081536047 0.064393327 1.0142002 0
0.082365774 -0.16072091 0.99720013 0
0.08179079 -0.15305573 0.99023885 0
0.0813061 -0.14130788 0.98437053 0
0.081052475 -0.019828739 0.98130006 0
0.082477257 0.037006941 0.99855006 0
0.083443657 0.050791543 1.0102503 0
0.082798362 -0.088549122 0.9764002 0
0.085044645 -0.1123322 0.97750008 0
0.084966354 -0.1036246 0.97659999 0
0.085658014 0.0061282869 0.98455012 0
0.087661557 -0.058817714 0.98270005 0
0.087309197 -0.0025309455 0.97875005 0
0.087755226 0.021290876 0.98374999 0
0.089668669 0.041681476 1.0052 0
0.091200314 -0.15641192 0.99773484 0
0.089506105 -0.097430155 0.97920001 0
0.089743778 -0.03065134 0.98180008 0
0.092229486 -0.14794487 0.98525304 0
0.091152705 -0.081874505 0.97375011 0
0.092168368 -0.067606114 0.98459995 0
0.094661847 -0.048253663 0.98799008 0
0.093877144 -0.0025336607 0.97980011 0
0.094389744 0.021321176 0.98515016 0
0.096294984 -0.1020814 0.98245013 0
0.096456699 -0.02638801 0.98409986 0
0.096280284 -0.013358133 0.9823001 0
0.098402306 0.037207071 1.00395 0
0.099117823 0.053069174 1.0112501 0
0.098529071 -0.11081602 0.98315012 0
0.099170469 -0.063586853 0.98955011 0
0.10170414 -0.13817334 0.99300754 0
0.10291755 -0.10221127 0.9837001 0
0.1045026 -0.039983854 0.99885005 0
0.10547362 -0.13086127 0.98734492 0
0.10826721 -0.026627231 0.99302149 0
0.10784545 -0.0025578472 0.98915291 0
0.10900606 -0.11477803 0.98000002 0
0.1094899 -0.10011069 0.98435003 0
0.1093175 -0.073976621 0.98280013 0
0.11301281 -0.12985286 0.99629343 0
0.11258819 -0.065965794 0.99255002 0
0.11542001 -0.1388866 0.99813336 0
0.11402851 0.016997788 0.98610008 0
0.11691929 -0.057200916 0.99220002 0
0.11665416 -0.020003524 0.98995006 0
0.11812036 -0.080568999 0.98400021 0
0.11977534 -0.046534427 0.99778664 0
0.12067888 0.0017959923 0.98720008 0
0.12521157 -0.12892139 1.00615 0
0.12298395 -0.070033431 0.98825008 0
0.12712815 -0.11535282 1.003785 0
0.12475538 -0.093672909 0.98505002 0
0.12578125 -0.031005681 0.99315006 0
0.12581924 -0.024450567 0.99345028 0
0.12684511 0.012852105 1.00155 0
0.12723817 -0.080853924 0.98748016 0
0.13866276 -0.12665439 1.0236499 0
