# .PCD v0.7 - Point Cloud Data file format
VERSION 0.7
FIELDS x y z rgb
SIZE 4 4 4 4
TYPE F F F F
COUNT 1 1 1 1
WIDTH 336
HEIGHT 1
VIEWPOINT 0 0 0 1 0 0 0
POINTS 336
DATA ascii
-0.13519542 -0.047316231 1.0145502 0
-0.13517824 -0.036138456 1.014421 0
-0.13307977 -0.013809042 1.0154574 0
-0.13193351 -0.061284862 1.0239203 0
-0.12668934 -0.042245988 1.0003202 0
-0.12382045 -0.039828602 0.99497163 0
-0.12459155 -0.033461165 1.001168 0
-0.12391835 -0.058440398 1.0137001 0
-0.11826855 -0.055650383 1.0036501 0
-0.11657168 -0.043957386 0.98925 0
-0.11617693 -0.017750155 0.98589993 0
-0.11449108 -0.0047410773 0.99010003 0
-0.11742 0.051051926 1.0154293 0
-0.11377356 -0.068869516 1.0030001 0
-0.10908948 -0.024137994 0.98074996 0
-0.11080243 0.008394598 0.99615014 0
-0.1100039 -0.084834158 1.0089502 0
-0.10557733 -0.0090862373 0.98831588 0
-0.10764805 0.03734605 1.0077002 0
-0.1049455 -0.073293999 1.0030836 0
-0.10234735 -0.026231145 0.97825015 0
-0.10362375 -0.093983464 1.01175 0
-0.10267638 0.026112858 1.0024999 0
-0.10418066 0.078025654 1.0171875 0
-0.10516558 0.085548185 1.026804 0
-0.099205539 -0.063609347 0.98990011 0
-0.10040314 0.017269282 1.00185 0
-0.10149957 -0.11900318 1.0355501 0
-0.098141477 -0.073162884 1.001289 0
-0.098853193 0.037377551 1.0085499 0
-0.094155014 -0.054488748 0.98269999 0
-0.096665278 0.050723664 1.0088999 0
-0.096893772 0.061980776 1.0112846 0
-0.09632466 -0.10465171 1.029 0
-0.093595929 0.01283029 0.99985015 0
-0.09189184 -0.084527276 1.0053 0
-0.09339194 0.087374307 1.0217112 0
-0.094016761 0.09475524 1.0285466 0
-0.090110213 -0.091609895 1.0101501 0
-0.087862276 -0.061121821 0.98494995 0
-0.087232783 -0.07547076 1.00265 0
-0.085275218 -0.015487763 0.9801501 0
-0.085660629 0.0039598495 0.98457992 0
-0.08602497 0.080050096 1.0144498 0
-0.087811522 0.09995912 1.0355179 0
-0.085822448 -0.11482821 1.03905 0
-0.083979204 -0.098925337 1.016734 0
-0.081064865 -0.0025379281 0.98145008 0
-0.082943961 0.043851849 1.0042 0
-0.083253682 0.066216603 1.0079499 0
-0.080587395 -0.073244065 1.0024 0
-0.077894181 -0.034516778 0.96890002 0
-0.081920221 0.08938501 1.0189785 0
-0.074188322 -0.024028474 0.97629994 0
-0.072790563 -0.059045166 0.98650014 0
-0.073521972 0.0083968062 0.99641216 0
-0.074190207 0.01733166 1.0054686 0
-0.07440649 0.07290943 1.0084001 0
-0.07419692 -0.11911235 1.0365 0
-0.072772391 -0.092194848 1.0166 0
-0.070029929 -0.008994055 0.97828895 0
-0.072686478 0.08683458 1.0153999 0
-0.069791287 -0.075715862 1.0059063 0
-0.067739286 -0.015427411 0.97633058 0
-0.069726869 0.057167131 1.0049778 0
-0.066403002 -0.00037888132 0.98845017 0
-0.065262221 0.050497424 1.0044 0
-0.065726817 0.066453092 1.0115501 0
-0.066061452 0.086945757 1.0167 0
-0.065159142 -0.1261436 1.0379999 0
-0.063674554 -0.10539596 1.0143502 0
-0.063687101 -0.089774296 1.0145501 0
-0.061298568 -0.060597457 0.97649992 0
-0.062770605 0.023843963 0.99995005 0
-0.059570413 -0.067529067 0.98347825 0
-0.059969127 0.01052398 0.99006081 0
-0.058739215 -0.080182403 1.0063498 0
-0.056562066 -0.034522127 0.96905005 0
-0.057997935 0.014939333 0.99365014 0
-0.058797579 0.037333079 1.0073501 0
-0.05695793 -0.098669052 1.0141001 0
-0.055303834 -0.015558871 0.98465002 0
-0.057273258 0.08046551 1.0197141 0
-0.056003213 -0.13069099 1.0378001 0
-0.05370054 -0.074904643 0.99512911 0
-0.05214392 -0.049321823 0.96628344 0
-0.054549437 0.044142686 1.0108602 0
-0.05464334 0.057600699 1.0126003 0
-0.052593123 -0.12124176 1.0160798 0
-0.052480292 -0.1053492 1.0139 0
-0.050037175 -0.05573082 0.96670008 0
-0.050917108 0.0017896248 0.98369998 0
-0.051543407 0.012778319 0.99580002 0
-0.047722638 0.035128247 1.00775 0
-0.045591027 -0.12492837 1.0097001 0
-0.044405766 0.0039553046 0.98345006 0
-0.045782931 0.044277616 1.0139501 0
-0.045855172 0.051058006 1.01555 0
-0.045816801 0.06889499 1.0146999 0
-0.041530944 -0.062134616 0.96695024 0
-0.041668385 -0.040971827 0.97014999 0
-0.04203346 -0.011152938 0.97864991 0
-0.042106479 -0.0046943887 0.98035002 0
-0.043704867 0.080295876 1.0175647 0
-0.038949966 -0.12947868 1.0104992 0
-0.039179347 0.057819705 1.01645 0
-0.03932197 0.071512006 1.0201499 0
-0.035899319 -0.098285861 0.98780012 0
-0.035871852 0.0083178636 0.98704445 0
-0.034109384 -0.11041322 0.99910003 0
-0.033855036 -0.10303732 0.9916501 0
-0.032921307 -0.055592466 0.96429998 0
-0.033092104 -0.13733001 1.0361515 0
-0.031052854 -0.077469423 0.97230005 0
-0.032266475 0.021865483 1.0102999 0
-0.028826531 -0.040942267 0.96945 0
-0.029297825 -0.0047180927 0.98529994 0
-0.026797235 -0.021810859 0.9733001 0
-0.025441205 -0.12427261 1.0044 0
-0.02568691 0.044284172 1.0141001 0
-0.025911074 0.076214537 1.0229499 0
-0.023986731 -0.14431792 1.0371668 0
-0.023159545 -0.10846174 1.0013999 0
-0.022543039 -0.036871873 0.97474253 0
-0.023327217 0.024051422 1.0086501 0
-0.020357523 -0.075374343 0.97290003 0
-0.020485166 -0.013313256 0.97900009 0
-0.018141534 -0.066534668 0.96899593 0
-0.019003766 0.048797123 1.0150502 0
-0.016120005 -0.039062053 0.97582227 0
-0.014762866 -0.15256634 1.0311556 0
-0.014090613 -0.0025450392 0.98419988 0
-0.014318965 0.010631224 1.0001501 0
-0.014607782 0.071524128 1.020323 0
-0.014721687 0.074346736 1.0282793 0
-0.01208647 -0.09927173 0.99770832 0
-0.011891332 -0.024158914 0.98160017 0
-0.012257786 0.044185918 1.0118501 0
-0.0099636801 -0.13766268 1.00525 0
-0.0098323626 -0.08996398 0.99200106 0
-0.007713682 -0.12600638 1.0006001 0
-0.0076913261 -0.11245602 0.99770004 0
-0.0076141767 0.0061478456 0.98769248 0
-0.0077175363 0.028281409 1.0010999 0
-0.0077977115 0.057538129 1.0115001 0
-0.0056566535 -0.15425475 1.0272745 0
-0.0053418269 -0.053790104 0.97010005 0
-0.0054384647 -0.00037857474 0.98765004 0
-0.0032577929 -0.080736846 0.98605013 0
-0.0033532747 0.068911955 1.01495 0
-0.0010704024 -0.043188654 0.97195017 0
-0.0011088375 0.046185244 1.0068501 0
0.0011042124 -0.11522238 1.0026499 0
0.0010806996 -0.030635729 0.98130018 0
0.0033953309 -0.16110626 1.0276794 0
0.0032539931 -0.097997293 0.98490012 0
0.0033441887 0.062036872 1.0121999 0
0.0055835606 -0.14779466 1.0140002 0
0.0055286326 -0.11980331 1.0040251 0
0.0054134107 -0.024195835 0.98310012 0
0.0055320738 0.030594524 1.00465 0
0.0075587295 -0.091080606 0.9805001 0
0.0075764619 -0.03068256 0.98280013 0
0.0075595006 -0.0046955864 0.9806 0
0.010206139 -0.16822895 1.029712 0
0.0099716084 0.043932639 1.0060501 0
0.012235904 -0.15166743 1.0100439 0
0.012168137 0.037225604 1.0044501 0
0.012162687 0.052688707 1.0040002 0
0.014568436 -0.16176352 1.017575 0
0.014089897 -0.061072171 0.98415005 0
0.016530145 -0.13923678 1.0006498 0
0.016516102 -0.13030989 0.99980003 0
0.016247664 -0.10652839 0.98354995 0
0.016677165 0.06187446 1.0095502 0
0.019168777 -0.17854932 1.023864 0
0.019158609 -0.16943881 1.023321 0
0.01869766 -0.12356738 0.99870002 0
0.018746333 0.037108861 1.0013002 0
0.018736033 0.048109673 1.0007498 0
0.018956956 0.075439692 1.0125501 0
0.02038187 -0.079755381 0.97406352 0
0.020509224 -0.050029624 0.98015004 0
0.020557353 -0.019851973 0.98245013 0
0.020658839 -0.0025530551 0.98730004 0
0.020694409 0.0061559854 0.98900002 0
0.025843695 -0.17792606 1.02029 0
0.02481683 -0.067273103 0.97975016 0
0.025004271 -0.015598373 0.98715019 0
0.02672427 -0.081613839 0.97065008 0
0.026967937 -0.052153878 0.97950017 0
0.02721427 -0.0025560218 0.98844749 0
0.027185434 0.014845367 0.98740017 0
0.027394969 0.034684159 0.99501038 0
0.029391497 -0.041744687 0.98845005 0
0.029277012 -0.026401415 0.98459995 0
0.029712632 0.039233822 0.99925011 0
0.032444689 -0.16820678 1.0158799 0
0.031923138 -0.13247892 0.99954998 0
0.030999517 -0.088025868 0.97062999 0
0.031194974 -0.058461595 0.97675002 0
0.031694792 0.02803563 0.99240005 0
0.033831138 0.0083507774 0.99094999 0
0.034199856 0.052570634 1.0017501 0
0.035735775 -0.0047085164 0.98330003 0
0.037064098 0.078229889 1.01985 0
0.037287608 0.083221361 1.026 0
0.038254034 -0.1271652 0.99244392 0
0.038297009 0.025879968 0.993559 0
0.04088641 -0.15730006 1.0034001 0
0.039771963 -0.11216557 0.9760502 0
0.039480619 -0.081466705 0.96890008 0
0.040008295 -0.052279003 0.98185015 0
0.040032744 -0.037163418 0.98245001 0
0.040745832 0.045868736 0.99995011 0
0.043362353 -0.17161267 1.0095899 0
0.043020256 -0.13937245 1.0016253 0
0.041893877 -0.094903655 0.97540015 0
0.041670542 -0.068754308 0.97019994 0
0.044439632 -0.02422291 0.98420012 0
0.045017589 0.039145481 0.99700004 0
0.045710683 0.057586491 1.01235 0
0.04630249 0.076401301 1.025457 0
0.046787359 0.021382857 0.98800009 0
0.048855122 0.081408478 1.0316646 0
0.050180174 -0.17880654 1.01255 0
0.048852779 -0.1284807 0.98576546 0
0.04855714 -0.056486052 0.97980011 0
0.050135516 -0.081441462 0.96860015 0
0.052670978 -0.097116746 0.97605008 0
0.053242989 0.0039681746 0.98664999 0
0.055037268 0.067001641 1.0199001 0
0.056943886 -0.1790361 1.01385 0
0.056682713 -0.16265495 1.0091999 0
0.056556337 -0.15563865 1.0069499 0
0.055148136 -0.11067264 0.98187792 0
0.054997735 -0.054294683 0.97920007 0
0.056606889 0.046231117 1.0078499 0
0.057845909 0.079001576 1.0299101 0
0.057250816 -0.043584127 0.98085004 0
0.057370473 -0.017696142 0.98290002 0
0.05917114 0.062131874 1.0137501 0
0.059796847 -0.1330187 0.98721665 0
0.059549488 -0.12597214 0.98313272 0
0.061128259 -0.064718805 0.97378701 0
0.06164024 0.0061120577 0.98194301 0
0.061787408 0.014798571 0.98428744 0
0.064131416 -0.12211931 0.98699647 0
0.063576102 -0.10166577 0.97845 0
0.065132283 0.03714963 1.0024002 0
0.066573508 -0.12697865 0.99098808 0
0.065778255 -0.071545228 0.97915012 0
0.069127105 0.08119823 1.029 0
0.069347382 -0.14788391 0.9995082 0
0.067969598 -0.015479863 0.97965002 0
0.068063267 0.0061061895 0.98100007 0
0.068271406 0.014794248 0.98399991 0
0.069214977 0.025985226 0.99759996 0
0.069863714 0.050625622 1.00695 0
0.069288284 -0.085648902 0.96792877 0
0.072910629 0.071398534 1.0185312 0
0.071713291 -0.060311992 0.97190017 0
0.072133839 -0.045592964 0.97759992 0
0.072063759 -0.034792878 0.97665006 0
0.072222412 -0.024090007 0.9788 0
0.076547801 -0.17566951 1.0073497 0
0.075484872 -0.14697455 0.99336201 0
0.074701257 -0.13895309 0.98304999 0
0.073952764 -0.098976687 0.97320002 0
0.07667698 0.046286158 1.0090501 0
0.077113912 0.066666588 1.0148002 0
0.078299865 -0.06901978 0.97394621 0
0.079510108 0.019226143 0.98900002 0
0.081387319 0.062046062 1.0123501 0
0.081197008 -0.024194608 0.98305005 0
0.083925769 -0.15733142 0.98969507 0
0.082734756 -0.10352379 0.97565001 0
0.082934037 -0.08869423 0.97799999 0
0.083366513 -0.039353374 0.98310006 0
0.087362722 -0.093130872 0.97935009 0
0.087566301 -0.071726575 0.98163211 0
0.088023871 0.0083154822 0.98676169 0
0.088214986 0.019224275 0.98890418 0
0.090136983 0.055252809 1.0104501 0
0.091317751 0.02822263 0.9990195 0
0.091814145 0.037225597 1.00445 0
0.092187099 -0.14787683 0.98480004 0
0.091597363 -0.12753376 0.97850001 0
0.091836065 -0.10625762 0.98105001 0
0.092407085 -0.050386928 0.98715007 0
0.094335452 0.04844619 1.0077499 0
0.095666721 -0.15652841 0.99847764 0
0.093972951 -0.13647471 0.98080015 0
0.094025664 -0.11493614 0.98135012 0
0.093709469 -0.000374895 0.97805005 0
0.094887972 0.021433717 0.99035013 0
0.096644573 -0.037298344 0.98601705 0
0.096561521 -0.026416689 0.98516953 0
0.09645386 -0.019884724 0.98407078 0
0.098632641 0.03951063 1.0062997 0
0.097772419 -0.086327732 0.97560006 0
0.10169313 -0.052867372 0.99290001 0
0.1051745 -0.16202192 1.0052725 0
0.10262984 -0.093283027 0.98095006 0
0.10306568 -0.015566228 0.98511583 0
0.10680948 -0.15454127 0.99984998 0
0.10638217 -0.1495361 0.99584997 0
0.10764805 0.041785143 1.0077002 0
0.10844783 -0.13840581 0.99467802 0
0.10845268 -0.066110186 0.99472249 0
0.1086994 -0.044301108 0.99698532 0
0.10887544 -0.022377813 0.99860001 0
0.1075017 0.016996069 0.98599994 0
0.10938789 0.034973122 1.0033 0
0.10935088 -0.12380258 0.98310006 0
0.10875025 -0.10804825 0.97770005 0
0.10959281 -0.074162908 0.98527509 0
0.11194512 -0.12862609 0.98688102 0
0.11216281 -0.00037901552 0.98880005 0
0.11168639 0.0082972664 0.98460019 0
0.11508527 -0.070528686 0.9952386 0
0.11485533 -0.057261448 0.99325007 0
0.1140599 -0.0090683606 0.9863714 0
0.1144364 0.019238334 0.98962736 0
0.12004799 -0.12153269 1.0000579 0
0.11878059 0.0039796368 0.98950005 0
0.12172134 -0.08372242 0.99572766 0
0.12510577 -0.12881249 1.0052999 0
0.12435666 -0.079619117 0.99928075 0
0.12368084 -0.066052206 0.99385005 0
0.12753531 -0.11572228 1.0070001 0
0.12636808 -0.022359515 0.99778336 0
0.12610421 -0.015733475 0.99570006 0
0.12745932 0.012914343 1.0064002 0
0.13587505 -0.12840536 1.0196502 0
0.13608222 -0.018086832 1.0045999 0
