# .PCD v0.7 - Point Cloud Data file format
VERSION 0.7
FIELDS x y z rgb
SIZE 4 4 4 4
TYPE F F F F
COUNT 1 1 1 1
WIDTH 294
HEIGHT 1
VIEWPOINT 0 0 0 1 0 0 0
POINTS 294
DATA ascii
-0.33141431 0.05896477 0.81553334 0
-0.32962498 -0.023535859 0.87773335 0
-0.31876242 -0.055853356 0.86920005 0
-0.31599739 -0.084343679 0.86686671 0
-0.32001331 -0.10603309 0.88862228 0
-0.31405714 -0.10083463 0.87744957 0
-0.31118047 -0.025383906 0.87479573 0
-0.30722842 -0.057758994 0.86906666 0
-0.32371718 -0.0084187174 0.91570908 0
-0.31858644 -0.11619721 0.90684563 0
-0.30591354 -0.087188326 0.8762666 0
-0.3155756 -0.0083105424 0.90394288 0
-0.31147447 -0.0084149055 0.91529447 0
-0.30436531 -0.1141101 0.90613341 0
-0.29531357 -0.097161122 0.87918526 0
-0.3001155 -0.012394118 0.91141039 0
-0.29049444 -0.029683298 0.88813335 0
-0.28322336 -0.075220339 0.87177408 0
-0.2872946 -0.068510562 0.88430542 0
-0.28450966 -0.040842138 0.87573332 0
-0.28732353 -0.10970794 0.90275556 0
-0.27948764 -0.087374263 0.87813562 0
-0.27885824 -0.076125428 0.8822636 0
-0.2810117 -0.025798298 0.88907701 0
-0.28741419 -0.012365872 0.90933329 0
-0.27715427 -0.08456444 0.88926667 0
-0.26598817 -0.071911648 0.87826663 0
-0.26259682 -0.050724827 0.87986672 0
-0.26651639 -0.037713602 0.89300007 0
-0.26338425 -0.072795935 0.8890667 0
-0.26116046 -0.094952069 0.89486676 0
-0.2579343 -0.084684893 0.89053351 0
-0.25631958 -0.020137468 0.89862567 0
-0.25318196 -0.051570367 0.8945334 0
-0.24849841 -0.037665732 0.89186674 0
-0.24109925 -0.068667449 0.8863306 0
-0.24474201 -0.026107192 0.89972228 0
-0.23789138 -0.078658864 0.88893342 0
-0.23231333 -0.049352411 0.8900668 0
-0.23313068 -0.030106645 0.90079993 0
-0.22643866 -0.091315143 0.89786685 0
-0.22254439 -0.065045759 0.89020002 0
-0.2136647 -0.055481989 0.89406681 0
-0.20842311 -0.08726906 0.89693344 0
-0.20683114 -0.035970852 0.89860004 0
-0.1933115 -0.064451464 0.88206679 0
-0.19152145 -0.038054273 0.90106666 0
-0.1830961 -0.076712422 0.88906682 0
-0.18422195 -0.053540662 0.8945334 0
-0.1738247 -0.043552466 0.89173335 0
-0.17138518 -0.064977556 0.88926673 0
-0.16778401 -0.046565644 0.91228569 0
-0.1641963 -0.066024877 0.90360004 0
-0.15968178 -0.036968928 0.92353338 0
-0.14142866 -0.11459286 0.85046661 0
-0.14040869 -0.088907972 0.85566676 0
-0.14155675 -0.071595043 0.8743999 0
-0.14186646 -0.064914234 0.88840008 0
-0.13622454 -0.14894016 0.86499995 0
-0.14324836 -0.040418129 0.90959996 0
-0.1324145 -0.13555866 0.85273337 0
-0.14075184 0.0036979723 0.91946673 0
-0.14181744 0.018272651 0.93995237 0
-0.12838553 -0.080215342 0.86353332 0
-0.13379726 -0.030077677 0.89993328 0
-0.13809964 0.024195004 0.92887145 0
-0.12750882 -0.15948005 0.87053341 0
-0.13201202 -0.042033467 0.90127766 0
-0.12137873 -0.11521532 0.84133345 0
-0.12704568 -0.049585294 0.89426672 0
-0.13094778 0.028069472 0.92173332 0
-0.12743503 -0.0023560962 0.91113335 0
-0.11916002 -0.0575286 0.86559999 0
-0.11634495 -0.14788868 0.85889339 0
-0.1146797 -0.13644841 0.84660012 0
-0.12084066 -0.045534384 0.89208204 0
-0.11202434 -0.11697569 0.84066671 0
-0.11095344 -0.088348337 0.83263028 0
-0.11951336 -0.026024332 0.89686668 0
-0.11279363 -0.027328886 0.87537795 0
-0.11603495 0.015522846 0.90053338 0
-0.11931637 0.052674551 0.92599994 0
-0.10729686 -0.14027715 0.84720004 0
-0.10493274 -0.10798771 0.82853341 0
-0.10660451 -0.080044277 0.8417334 0
-0.10845479 -0.062571853 0.85634297 0
-0.11038709 -0.042569146 0.87160015 0
-0.10801101 -0.1723856 0.86793333 0
-0.10639318 -0.051170472 0.85493332 0
-0.11108068 0.0075219772 0.8926 0
-0.10861752 -0.010125945 0.88853341 0
-0.10271509 -0.024828833 0.85566676 0
-0.10772479 0.021398639 0.89740008 0
-0.10863482 0.033539213 0.90498096 0
-0.098027147 -0.068113349 0.83187741 0
-0.099542052 -0.061723568 0.84473342 0
-0.10631561 0.046223946 0.91939992 0
-0.10755675 0.069299273 0.9301334 0
-0.094973885 -0.12572333 0.83726674 0
-0.098431721 0.0074573713 0.88493347 0
-0.099076882 0.019277755 0.89073336 0
-0.090006322 -0.078503743 0.82553333 0
-0.093842849 -0.18221773 0.87846857 0
-0.091435507 -0.15492007 0.85593337 0
-0.090310268 -0.13625498 0.84540009 0
-0.087896004 -0.065557793 0.82279998 0
-0.089236371 -0.011598898 0.85293335 0
-0.08936514 -0.16753371 0.87253338 0
-0.085152246 -0.038774543 0.83140004 0
-0.087084569 -0.026544932 0.85026675 0
-0.094964117 0.06499625 0.92720008 0
-0.081917971 -0.10293584 0.8174001 0
-0.084985659 -0.15884493 0.86706662 0
-0.087462194 0.025208712 0.89233333 0
-0.082724571 -0.15246806 0.86339992 0
-0.081012711 -0.12696466 0.84553343 0
-0.077767864 -0.080760643 0.81166673 0
-0.077378005 -0.03308871 0.82660002 0
-0.07906922 -0.013346932 0.84466672 0
-0.085434698 0.045885418 0.91266668 0
-0.076366238 -0.14363271 0.85607773 0
-0.075835973 -0.1351454 0.85013348 0
-0.075935535 -0.16758496 0.87279999 0
-0.070854597 -0.045156848 0.81439996 0
-0.07446228 0.003442181 0.85586667 0
-0.070526868 0.01659915 0.85386676 0
-0.068415672 -0.12965991 0.85100013 0
-0.073187396 0.061810207 0.9103539 0
-0.069658525 -0.1867516 0.8908667 0
-0.068523437 0.034408368 0.87634999 0
-0.063142017 -0.11196092 0.83093339 0
-0.068522051 0.049308024 0.90173334 0
-0.062359285 -0.13656498 0.87113345 0
-0.058255129 -0.097105108 0.8138001 0
-0.058145363 -0.07545305 0.81226665 0
-0.063429408 0.03869383 0.88608235 0
-0.064578407 0.065226115 0.90213341 0
-0.061041847 -0.16117768 0.87980008 0
-0.056749444 -0.029138638 0.81793338 0
-0.057540406 -0.013104646 0.82933336 0
-0.056045137 0.0033553091 0.83426672 0
-0.057155591 -0.1533979 0.879637 0
-0.056531332 0.030327577 0.87002975 0
-0.053094029 0.023894131 0.8458001 0
-0.049244352 -0.04686993 0.81299996 0
-0.054158699 0.072525345 0.89413345 0
-0.052724887 -0.18935995 0.90330952 0
-0.047103424 -0.064298891 0.80700004 0
-0.049044136 -0.12342588 0.8732 0
-0.051346947 0.090261832 0.91420007 0
-0.048451938 -0.16448745 0.89786667 0
-0.047588523 0.054048851 0.88186669 0
-0.042971827 -0.03140422 0.83020008 0
-0.047901444 0.099524863 0.92543852 0
-0.040380046 -0.054152373 0.81480014 0
-0.043235689 -0.1753037 0.91299999 0
-0.04227595 -0.14585012 0.89273334 0
-0.039500911 -0.013180492 0.83413339 0
-0.039942384 0.073700465 0.8846001 0
-0.034984581 -0.077457696 0.81453335 0
-0.036115609 -0.00032231133 0.84086668 0
-0.032956876 -0.066223785 0.80879992 0
-0.035464231 0.034172129 0.87033343 0
-0.032516804 -0.017046282 0.84360003 0
-0.032408874 0.012641265 0.84080005 0
-0.030103058 -0.033157196 0.8283112 0
-0.032795645 0.097047232 0.90240002 0
-0.027778666 -0.054077048 0.81366676 0
-0.028085856 -0.12817614 0.87940007 0
-0.024120977 -0.082500927 0.81120008 0
-0.025082411 0.014540316 0.8435334 0
-0.024753558 -0.16668847 0.89907175 0
-0.024287464 -0.14217693 0.88214308 0
-0.021947391 0.037837248 0.86646664 0
-0.018197414 0.047554571 0.8696667 0
-0.019178079 0.11067966 0.91653329 0
-0.015182517 -0.17039646 0.9190715 0
-0.014663727 -0.15284301 0.8876667 0
-0.014910233 0.10303165 0.9025889 0
-0.012414593 0.026406741 0.86713338 0
-0.010732402 -0.14083648 0.88593334 0
-0.010240565 0.003399818 0.8453334 0
-0.0086687226 -0.12747654 0.87459999 0
-0.006795533 0.077325352 0.88150007 0
-0.0069052591 0.088438548 0.89573342 0
-0.0044943797 -0.079413943 0.81620014 0
-0.0049676537 0.10496845 0.90214878 0
-0.0028111627 -0.024689551 0.85086662 0
-0.0028853896 0.040060703 0.87333333 0
-0.00096913852 -0.13601674 0.88000005 0
-0.00096010789 -0.11938754 0.87180007 0
-0.00089902297 -0.056052327 0.81633347 0
0.00095129746 0.03201301 0.86380005 0
0.0027524268 -0.040688265 0.83308893 0
0.0046327948 -0.092978381 0.84133673 0
0.0067089354 -0.11151023 0.87026674 0
0.006567603 -0.013461758 0.85193342 0
0.0068610609 0.068269454 0.89000005 0
0.0068636299 0.082022287 0.89033341 0
0.0081506763 -0.074576907 0.8223334 0
0.008391859 0.0034051801 0.84666663 0
0.012908999 -0.15326761 0.90166664 0
0.011859098 -0.091541342 0.82833332 0
0.012317238 0.016724862 0.86033326 0
0.01478487 -0.14622043 0.8950001 0
0.014021674 -0.097542293 0.8488 0
0.017034424 -0.1586687 0.90986162 0
0.015815092 -0.044978175 0.84473342 0
0.018355044 -0.12592338 0.87720007 0
0.018440135 0.050129946 0.88126665 0
0.018922796 0.10522265 0.90433335 0
0.021439105 -0.015238595 0.84640014 0
0.024672655 -0.15035321 0.89613342 0
0.024566194 -0.14380857 0.89226669 0
0.023830166 0.03589008 0.86553341 0
0.024679994 0.074683592 0.89640009 0
0.024384631 -0.067146286 0.82006675 0
0.026985444 0.095600359 0.90753335 0
0.030323241 -0.12945877 0.88820016 0
0.028884808 -0.091637574 0.84606671 0
0.031333249 -0.0079264147 0.86216086 0
0.03182409 0.045953929 0.87566668 0
0.031971879 0.055855799 0.87973326 0
0.034716453 0.082974248 0.90066665 0
0.036815334 -0.16352779 0.90349102 0
0.033818021 -0.08440616 0.8299334 0
0.037042536 0.095761903 0.90906674 0
0.038082734 0.069966726 0.88666672 0
0.042370658 -0.15011832 0.89473337 0
0.040536422 -0.036150992 0.85599995 0
0.041975811 -0.097335443 0.84700006 0
0.045504648 0.0035357566 0.8791334 0
0.045974694 0.060307 0.88821441 0
0.047124434 -0.013798854 0.87326664 0
0.050073553 -0.1279802 0.89152813 0
0.049257573 0.032502219 0.87699997 0
0.050459519 0.086723052 0.89840007 0
0.052220415 0.072568588 0.89466673 0
0.050480008 -0.068237998 0.83340007 0
0.052357711 -0.026986165 0.86440003 0
0.054921042 -0.11595861 0.87490475 0
0.05750839 0.011357367 0.88506681 0
0.057551708 0.058187645 0.88573343 0
0.056873683 -0.084236488 0.84660012 0
0.0610696 -0.12053787 0.88019997 0
0.061296239 0.0016072724 0.88346678 0
0.06266471 -0.10831168 0.87540013 0
0.061557543 -0.053363815 0.85993344 0
0.062718682 -0.062108394 0.85000008 0
0.065493055 0.019209942 0.88760006 0
0.065817729 0.033058122 0.89200002 0
0.065325826 0.046461225 0.8853333 0
0.065497972 0.060269818 0.88766676 0
0.066250615 0.078761049 0.89786667 0
0.065533154 -0.040220309 0.86240011 0
0.068863578 -0.12060634 0.88070011 0
0.069616817 -0.0042633465 0.89033335 0
0.073682077 0.068427987 0.89206678 0
0.074075289 -0.10423265 0.87353325 0
0.073832199 -0.032934971 0.87066674 0
0.075844787 0.05678701 0.8944 0
0.076150134 -0.090944521 0.87526667 0
0.075396106 -0.067138858 0.86659998 0
0.075494714 -0.05958163 0.86773336 0
0.075227924 -0.046039533 0.8646667 0
0.077443555 0.038870733 0.89013344 0
0.080064289 0.015471132 0.89753342 0
0.082070976 -0.019646881 0.87673336 0
0.085777797 0.066701539 0.89526677 0
0.087035768 -0.082586452 0.86846668 0
0.089293994 -0.008191552 0.89100009 0
0.089576811 -0.10435993 0.87459999 0
0.088450186 -0.059297815 0.86360008 0
0.09908317 0.025673497 0.90878582 0
0.096629784 -0.084525295 0.86873341 0
0.098980479 -0.012101148 0.88986677 0
0.099855475 0.0016332273 0.89773339 0
0.099848062 0.041176897 0.89766663 0
0.099533908 -0.031259496 0.87746662 0
0.10064175 -0.075096041 0.87033343 0
0.10257443 -0.050182912 0.87046677 0
0.10534015 -0.11050864 0.87753451 0
0.10388349 -0.061327539 0.86540008 0
0.10857309 0.015590647 0.90446669 0
0.11040398 -0.034895387 0.87173337 0
0.11263327 -0.098528162 0.87413317 0
0.11461759 -0.010137341 0.88953346 0
0.11485569 -0.085271239 0.87639999 0
0.11372862 -0.05767481 0.8678 0
0.11579929 -0.02369317 0.88360006 0
0.12639932 -0.081385769 0.87613338 0
0.12732261 -0.027552279 0.88253343 0
0.13209806 -0.06783095 0.87553334 0
0.13228919 -0.046685573 0.8768 0
