# .PCD v0.7 - Point Cloud Data file format
VERSION 0.7
FIELDS x y z rgb
SIZE 4 4 4 4
TYPE F F F F
COUNT 1 1 1 1
WIDTH 957
HEIGHT 1
VIEWPOINT 0 0 0 1 0 0 0
POINTS 957
DATA ascii
-0.058627371 -0.11757866 0.84500015 1.6044186e-38
-0.058414601 -0.11529749 0.84193337 1.5491373e-38
-0.057983276 -0.1126054 0.83571661 1.5953077e-38
-0.057621349 -0.11007326 0.83050007 1.6413335e-38
-0.057437982 -0.10789957 0.8278572 1.5492823e-38
-0.057249006 -0.10572714 0.82513338 1.4847451e-38
-0.057031598 -0.10351512 0.82200009 1.475561e-38
-0.056855824 -0.10139115 0.81946677 1.5031839e-38
-0.056666184 -0.099254027 0.8167333 1.3833656e-38
-0.056495044 -0.097160771 0.81426674 1.1805365e-38
-0.056425657 -0.095250152 0.81326669 9.9589231e-39
-0.056388658 -0.093397595 0.81273359 1.0143674e-38
-0.056356277 -0.091554858 0.81226671 1.2634394e-38
-0.056300774 -0.089677364 0.81146675 1.2357442e-38
-0.056286898 -0.087868378 0.81126678 9.4986638e-39
-0.056273025 -0.086060271 0.81106681 6.6351931e-39
-0.056314651 -0.084336162 0.81166679 6.4500857e-39
-0.056305401 -0.08253482 0.81153339 7.4631363e-39
-0.056314651 -0.080760635 0.81166679 8.8471539e-39
-0.056337781 -0.079005308 0.8120001 1.0051824e-38
-0.056296151 -0.07715974 0.81140006 9.8660002e-39
-0.056319278 -0.075403519 0.81173342 8.6674486e-39
-0.056305401 -0.073597468 0.81153339 8.66745e-39
-0.056226771 -0.071709722 0.81040013 9.0376744e-39
-0.056212895 -0.069907457 0.8102001 9.5904923e-39
-0.056180518 -0.068083711 0.80973339 5.2576606e-39
-0.056185141 -0.06630566 0.80980003 3.6878112e-39
-0.056217518 -0.064559199 0.81026667 4.1477215e-39
-0.056208268 -0.062764175 0.8101334 2.9495343e-39
-0.056212895 -0.060984805 0.81020004 2.3030887e-39
-0.056254521 -0.059244096 0.81080002 3.1324878e-39
-0.056259148 -0.057462964 0.81086677 4.3317485e-39
-0.056319278 -0.055736471 0.81173331 4.7001694e-39
-0.056347027 -0.053975146 0.81213343 4.6076137e-39
-0.056370154 -0.052207768 0.81246674 4.6079696e-39
-0.056416411 -0.050459612 0.81313342 4.9763906e-39
-0.056444164 -0.048692558 0.81353337 4.9774696e-39
-0.056476545 -0.046927579 0.81400001 5.2544166e-39
-0.056596804 -0.045230772 0.81573331 5.1629399e-39
-0.056680061 -0.043497957 0.81693339 5.2551341e-39
-0.056735564 -0.041739415 0.81773341 5.3473297e-39
-0.056758694 -0.039954565 0.81806672 5.439168e-39
-0.056781821 -0.038168248 0.81840003 5.4395281e-39
-0.056763317 -0.036353804 0.81813335 4.8877991e-39
-0.056772571 -0.034557421 0.81826675 4.520097e-39
-0.056777194 -0.032757785 0.81833339 4.2431542e-39
-0.056721691 -0.030925076 0.81753337 3.2293638e-39
-0.056749444 -0.029138638 0.81793338 2.8595037e-39
-0.056902077 -0.027410598 0.82013339 2.3059683e-39
-0.057054732 -0.025672862 0.8223334 2.0293843e-39
-0.057188876 -0.023917705 0.82426673 1.6598857e-39
-0.057318386 -0.022152236 0.82613337 1.1999879e-39
-0.057350762 -0.02034409 0.82660007 1.3847379e-39
-0.057471026 -0.018562274 0.82833332 1.1999893e-39
-0.057517279 -0.016751271 0.82900006 1.107435e-39
-0.057531156 -0.014928925 0.82920003 1.0141617e-39
-0.057540406 -0.013104646 0.82933336 2.7695123e-40
-0.057595909 -0.011288846 0.83013344 5.5353531e-40
-0.057679173 -0.0094740801 0.8313334 2.3967276e-39
-0.057720799 -0.0076485109 0.83193332 2.8577072e-39
-0.057753179 -0.0058193677 0.83240008 3.5023563e-39
-0.057780925 -0.0039878492 0.83280009 3.9633275e-39
-0.057804056 -0.0021543959 0.83313334 4.1477159e-39
-0.057822552 -0.00031944938 0.83339995 3.9633233e-39
-0.057901189 0.001518249 0.83453339 4.6094116e-39
-0.057965942 0.0033601352 0.83546668 5.0696666e-39
-0.058081575 0.0052106981 0.83713341 4.0548e-39
-0.058178712 0.0070663556 0.8385334 3.9618841e-39
-0.058261968 0.0089260535 0.83973342 3.9615254e-39
-0.058377601 0.010797028 0.84140003 3.9611653e-39
-0.058483984 0.01267334 0.8429333 4.0533595e-39
-0.058553364 0.014547211 0.8439334 3.9611639e-39
-0.058622744 0.01642549 0.84493345 4.3299436e-39
-0.058706 0.018312493 0.84613341 4.6072479e-39
-0.058761504 0.020195263 0.84693342 4.792721e-39
-0.058877137 0.022104116 0.84860009 5.1611434e-39
-0.059015907 0.024029728 0.85060018 5.6214013e-39
-0.059340343 0.026045658 0.85527623 5.437373e-39
-0.059607372 0.028055144 0.8591246 5.7136011e-39
-0.060132779 0.030211424 0.86669749 6.0834584e-39
-0.060371168 0.032247737 0.87013334 6.2682126e-39
-0.060579311 0.03428207 0.8731333 7.0068497e-39
-0.060905192 0.036399987 0.87783033 6.8228241e-39
-0.061127417 0.038473353 0.88103348 6.1767387e-39
-0.061518263 0.040672313 0.88666683 3.7785761e-39
-0.06169403 0.042747062 0.88920009 3.5009032e-39
-0.061851289 0.044819567 0.89146674 3.6845756e-39
-0.062008578 0.046902053 0.89373332 3.7767726e-39
-0.062124211 0.048961706 0.89540011 3.9618813e-39
-0.062244471 0.051032498 0.89713347 4.5161327e-39
-0.062304605 0.053059731 0.898 4.4239385e-39
-0.062336981 0.055066254 0.89846671 4.3310254e-39
-0.062350858 0.057057906 0.89866662 3.5938177e-39
-0.062350858 0.059037294 0.89866662 2.8562554e-39
-0.062406361 0.061071012 0.89946669 2.8548163e-39
-0.062438741 0.063084863 0.8999334 2.8544562e-39
-0.062466495 0.065095983 0.90033334 2.8548135e-39
-0.062535875 0.067153543 0.90133339 2.9470105e-39
-0.062654749 0.069270216 0.90304667 3.0388474e-39
-0.062785648 0.071408153 0.90493333 3.2228786e-39
-0.062878169 0.073509492 0.90626681 3.3161518e-39
-0.062908754 0.075542353 0.9067077 3.7764111e-39
-0.06304004 0.077701308 0.90860003 4.6072507e-39
-0.063197292 0.079901405 0.91086668 4.7930853e-39
-0.063405432 0.08217743 0.91386676 4.9781941e-39
-0.063534945 0.084362268 0.91573334 4.7012513e-39
-0.063737087 0.086654067 0.91864663 3.963689e-39
-0.063956328 0.0889825 0.92180663 2.5804e-39
-0.065024577 0.092533 0.93720311 3.8714962e-39
-0.065907806 0.0958822 0.94993329 4.0548014e-39
-0.066139072 0.098318316 0.9532668 3.777853e-39
-0.066393472 0.10080422 0.95693332 3.5927429e-39
-0.066666372 0.10333495 0.96086669 3.6849385e-39
-0.066948541 0.10589764 0.9649334 4.146274e-39
-0.0671058 0.10827673 0.9672001 4.6994506e-39
-0.067247488 0.11064021 0.96924216 5.3462605e-39
-0.061587289 -0.20227693 0.91676509 1.5397028e-38
-0.061305992 -0.19934301 0.91257787 1.8812227e-38
-0.060961802 -0.19622514 0.90745425 1.7151981e-38
-0.060686454 -0.19334908 0.9033556 1.2631882e-38
-0.060483422 -0.19071913 0.90033334 1.6413342e-38
-0.060398336 -0.18847056 0.89906675 1.7242746e-38
-0.060308754 -0.18621373 0.89773339 1.7243464e-38
-0.060228143 -0.18399009 0.89653337 1.55843e-38
-0.06014305 -0.18175825 0.89526671 1.4847088e-38
-0.060062431 -0.17954539 0.89406669 1.6598809e-38
-0.05997286 -0.17731129 0.8927334 1.669101e-38
-0.059910163 -0.17516164 0.89180005 1.6505899e-38
-0.059811637 -0.17291254 0.89033341 1.5860521e-38
-0.059695192 -0.17061871 0.88860011 1.5582852e-38
-0.059605625 -0.16840841 0.8872667 1.5582488e-38
-0.059475746 -0.16609143 0.88533336 1.5674682e-38
-0.059435431 -0.16403013 0.88473344 1.5950909e-38
-0.059292112 -0.16169064 0.88260007 1.5214423e-38
-0.059238374 -0.15960182 0.88180006 1.4384301e-38
-0.059153274 -0.15743312 0.8805334 1.3922245e-38
-0.05907714 -0.15529352 0.87940013 1.5027156e-38
-0.059023399 -0.15321706 0.8786 1.5396655e-38
-0.058942784 -0.15107527 0.87739998 1.5121145e-38
-0.058871131 -0.1489614 0.8763333 1.364673e-38
-0.058862172 -0.14700884 0.8761999 1.3277234e-38
-0.058808431 -0.14494643 0.87539995 1.0602841e-38
-0.058781561 -0.14295296 0.87499994 9.5897636e-39
-0.058745734 -0.14093971 0.87446666 1.0692506e-38
-0.058723342 -0.13896061 0.87413329 1.096873e-38
-0.058656164 -0.13687852 0.8731333 9.9556651e-39
-0.058571067 -0.13475959 0.87186682 1.2079043e-38
-0.058463585 -0.1325954 0.87026674 1.4751641e-38
-0.058297861 -0.13030818 0.86780006 1.3736775e-38
-0.058172464 -0.12812062 0.86593336 1.3182516e-38
-0.057991087 -0.12581979 0.86323327 1.3275066e-38
-0.057726648 -0.12335337 0.85929704 1.3275784e-38
-0.057245396 -0.12044813 0.85213339 1.512151e-38
-0.056927428 -0.1179126 0.84740007 1.5860154e-38
-0.056672141 -0.11552574 0.84360009 1.5768678e-38
-0.056310181 -0.11294167 0.83821207 1.586088e-38
-0.055945307 -0.11037554 0.83278078 1.6228943e-38
-0.055652935 -0.10797404 0.82842863 1.5860885e-38
-0.055435084 -0.10573385 0.82518584 1.576941e-38
-0.055274818 -0.10361587 0.82280004 1.5861244e-38
-0.055086721 -0.10145713 0.82000005 1.5954519e-38
-0.054916535 -0.099343151 0.81746668 1.5125474e-38
-0.054741863 -0.097232372 0.81486666 1.1622412e-38
-0.054665722 -0.09530481 0.8137334 9.406471e-39
-0.054598544 -0.093397595 0.81273347 1.0052925e-38
-0.054585107 -0.091584921 0.8125335 1.2358179e-38
-0.054535847 -0.089714199 0.8118 1.2633682e-38
-0.054535847 -0.087926134 0.81180006 1.0329155e-38
-0.054513454 -0.086102717 0.81146675 5.7110662e-39
-0.054535847 -0.084350012 0.81180012 5.0660597e-39
-0.054500021 -0.082507715 0.81126672 7.6482478e-39
-0.054513454 -0.080740727 0.81146675 8.7553268e-39
-0.054504499 -0.078940421 0.81133348 9.5886916e-39
-0.054473151 -0.077109009 0.81086671 8.2986745e-39
-0.054508977 -0.075372562 0.81140012 7.560385e-39
-0.054500017 -0.073573299 0.81126678 8.0220862e-39
-0.054419406 -0.071680225 0.81006682 7.5614654e-39
-0.054423884 -0.069901712 0.8101334 8.1139259e-39
-0.054370146 -0.068050072 0.80933338 5.5320951e-39
-0.054365668 -0.066261984 0.80926681 3.8707717e-39
-0.05438358 -0.064500742 0.80953342 5.8997986e-39
-0.054370143 -0.062702201 0.80933338 5.7161248e-39
-0.054383576 -0.060934622 0.80953336 5.0696722e-39
-0.054441798 -0.059214871 0.81040007 3.3186741e-39
-0.054455232 -0.057444062 0.8106001 3.5027039e-39
-0.054491058 -0.055695273 0.81113344 4.4235798e-39
-0.054544803 -0.053961854 0.8119334 4.423221e-39
-0.054576151 -0.052203484 0.8124001 4.1459139e-39
-0.054607499 -0.050443064 0.81286681 4.422498e-39
-0.054643329 -0.048684575 0.81340003 4.5154167e-39
-0.054670203 -0.046916053 0.81379998 4.7930811e-39
-0.054809038 -0.045238171 0.81586671 5.3458934e-39
-0.054889653 -0.043505054 0.81706679 5.3462507e-39
-0.054938927 -0.04174282 0.81779999 5.1607791e-39
-0.054965798 -0.039961074 0.81820011 5.2533362e-39
-0.054992672 -0.038177583 0.81860006 5.4373659e-39
-0.054992676 -0.036374535 0.81860012 5.5299217e-39
-0.055001631 -0.034577135 0.81873339 5.5306434e-39
-0.055028494 -0.032789815 0.81913346 5.3469738e-39
-0.055001624 -0.030970471 0.81873345 5.070747e-39
-0.055032976 -0.029183768 0.81920016 4.8863558e-39
-0.055162858 -0.027444016 0.82113343 4.7938e-39
-0.055324085 -0.025710326 0.82353336 4.5175775e-39
-0.055471871 -0.023960259 0.82573324 4.3335491e-39
-0.05559279 -0.022189775 0.82753336 3.4133949e-39
-0.055633102 -0.020381831 0.82813334 3.2282848e-39
-0.055713713 -0.018584685 0.82933342 2.3059711e-39
-0.055754025 -0.01677013 0.8299334 1.75244e-39
-0.055749539 -0.01494093 0.82986677 1.568046e-39
-0.055745061 -0.013112019 0.82980007 1.6598843e-39
-0.055785373 -0.011292472 0.83040011 1.2914647e-39
-0.055865992 -0.009477119 0.83160007 3.671402e-43
-0.055928703 -0.0076540271 0.83253348 4.2038954e-45
-0.055964533 -0.0058240285 0.83306676 7.0064923e-45
-0.055977967 -0.003990083 0.83326679 2.5800371e-39
-0.055982444 -0.0021549137 0.83333337 4.7930839e-39
-0.055969007 -0.00031934716 0.8331334 5.1625839e-39
-0.056009311 0.0015167935 0.83373338 5.0703883e-39
-0.056045137 0.0033553091 0.83426672 4.9774724e-39
-0.05613919 0.0052015684 0.83566672 3.9622429e-39
-0.056224279 0.0070528728 0.83693343 3.9618827e-39
-0.056309368 0.0089097554 0.83820003 3.9615254e-39
-0.056425814 0.010778206 0.8399334 3.8689696e-39
-0.05652434 0.012650286 0.84139997 3.9608065e-39
-0.056582563 0.014518481 0.8422668 4.054077e-39
-0.056676622 0.016400864 0.84366673 4.3303037e-39
-0.056743801 0.018280756 0.84466678 4.6076095e-39
-0.056797545 0.020160284 0.84546673 5.0693065e-39
-0.056913991 0.022067649 0.84720004 5.2536992e-39
-0.057016991 0.023976998 0.84873337 5.713957e-39
-0.057313852 0.025980981 0.85315239 5.6224803e-39
-0.057809927 0.028101262 0.86053658 5.6228418e-39
-0.058213547 0.030206107 0.8665449 5.9912642e-39
-0.058526281 0.032287262 0.87120003 5.9916243e-39
-0.058674078 0.034292538 0.87339997 7.0064881e-39
-0.058889043 0.036348965 0.87659997 6.7306313e-39
-0.059099536 0.038416591 0.87973332 6.0845416e-39
-0.059399597 0.040559169 0.8842001 3.0406523e-39
-0.059601147 0.042650916 0.88720006 3.3168735e-39
-0.059713107 0.044688843 0.88886666 3.9611611e-39
-0.059847459 0.046751607 0.8908667 3.7771313e-39
-0.060004208 0.048841413 0.89319998 4.0533567e-39
-0.06010722 0.050895978 0.89473343 4.5154139e-39
-0.060187828 0.052937623 0.89593345 4.2395472e-39
-0.060214695 0.054935507 0.89633346 4.055156e-39
-0.060263973 0.05695631 0.89706677 3.6860147e-39
-0.060272925 0.058940936 0.89720017 3.3168721e-39
-0.060308758 0.060953319 0.89773339 3.038846e-39
-0.060313236 0.06293533 0.89780003 2.9470077e-39
-0.060326681 0.064927272 0.898 3.0384845e-39
-0.060380418 0.066964798 0.89879996 2.8555324e-39
-0.06047805 0.06905596 0.90025342 3.0392062e-39
-0.060590908 0.071171418 0.90193331 3.2232373e-39
-0.060698394 0.073287793 0.9035334 3.2232373e-39
-0.060720101 0.075304814 0.9038564 3.4994599e-39
-0.060835022 0.077441953 0.90556723 4.3303023e-39
-0.061092507 0.079772733 0.90940005 4.9771137e-39
-0.061262555 0.082003385 0.91193116 4.8856397e-39
-0.061459761 0.084282421 0.91486663 4.6097745e-39
-0.06169264 0.086624511 0.91833335 4.1487977e-39
-0.061891489 0.088932946 0.92129338 3.1335738e-39
-0.062474225 0.091818623 0.92996764 4.0551658e-39
-0.063695341 0.095701702 0.94814509 4.3317485e-39
-0.063957922 0.098193176 0.95205337 3.962603e-39
-0.064209618 0.10068484 0.95580006 3.8689682e-39
-0.064420111 0.10312703 0.95893329 3.7764139e-39
-0.064659707 0.10563059 0.96250004 3.8696885e-39
-0.064827658 0.10803045 0.96500003 4.0537196e-39
-0.0649665 0.11039186 0.96706671 4.3317485e-39
-0.059401374 -0.19969735 0.91420001 1.9088093e-38
-0.059012443 -0.19638945 0.90821439 1.835052e-38
-0.058707662 -0.19338508 0.9035238 1.5307347e-38
-0.058539346 -0.19084623 0.90093338 1.6506616e-38
-0.058435384 -0.18852644 0.89933336 1.6782489e-38
-0.058353078 -0.18628287 0.8980667 1.678285e-38
-0.058270779 -0.18404484 0.89679998 1.5675412e-38
-0.058210135 -0.18188006 0.89586663 1.5583927e-38
-0.05813216 -0.17966586 0.89466679 1.6046351e-38
-0.058084514 -0.17754963 0.89393336 1.6046357e-38
-0.058023874 -0.17539735 0.89300007 1.5677212e-38
-0.057972755 -0.17327766 0.8922134 1.5121151e-38
-0.057846271 -0.17093872 0.89026672 1.5488494e-38
-0.057768289 -0.16875006 0.88906676 1.5581409e-38
-0.057685986 -0.16655417 0.88780004 1.5397375e-38
-0.057629678 -0.16443804 0.88693333 1.5857634e-38
-0.057521388 -0.16217916 0.88526672 1.5951272e-38
-0.057491064 -0.16014481 0.88480008 1.4753086e-38
-0.057374105 -0.15787412 0.88300008 1.3277234e-38
-0.057278808 -0.15567026 0.88153344 1.4473982e-38
-0.057155591 -0.1533979 0.879637 1.5395935e-38
-0.057144519 -0.1514311 0.87946665 1.5305535e-38
-0.057070877 -0.14930135 0.87833339 1.5583557e-38
-0.057018895 -0.1472325 0.87753332 1.5398091e-38
-0.056984242 -0.14521137 0.87699997 1.3923324e-38
-0.056953922 -0.14320344 0.87653333 1.2079404e-38
-0.056932263 -0.14121908 0.87619996 1.152369e-38
-0.056893282 -0.1391938 0.87559998 1.3735315e-38
-0.056849964 -0.13716069 0.8749333 1.3644924e-38
-0.056741673 -0.13497598 0.87326676 1.3645644e-38
-0.056642041 -0.13281889 0.87173337 1.3460544e-38
-0.056486093 -0.13053845 0.86933339 1.3551659e-38
-0.056390803 -0.12840667 0.86786669 1.3090674e-38
-0.056269515 -0.12622306 0.86600006 1.3183948e-38
-0.056114819 -0.12397386 0.86361951 1.3461972e-38
-0.05563635 -0.1210308 0.85625553 1.4752364e-38
-0.055355515 -0.11854339 0.85193336 1.5950912e-38
-0.055060945 -0.1160461 0.84740001 1.5583929e-38
-0.054749433 -0.11353365 0.84260559 1.5584293e-38
-0.054131474 -0.11041724 0.83309525 1.5860524e-38
-0.053875923 -0.10806967 0.82916242 1.6044558e-38
-0.053663027 -0.10582354 0.82588577 1.5952724e-38
-0.053505849 -0.10369983 0.82346672 1.5860888e-38
-0.053293593 -0.10148188 0.82020015 1.5770855e-38
-0.053159304 -0.099424168 0.81813335 1.6231469e-38
-0.052994706 -0.097319871 0.8156001 1.1898647e-38
-0.052925393 -0.095398515 0.81453341 1.0328431e-38
-0.052864749 -0.093497187 0.81360018 1.0236959e-38
-0.052851748 -0.091682605 0.81340015 1.1620251e-38
-0.052804098 -0.089809977 0.81266671 1.2633324e-38
-0.052769445 -0.087962247 0.81213349 1.0790491e-38
-0.052756451 -0.086152233 0.81193346 4.8813041e-39
-0.052756451 -0.08436387 0.81193346 4.236299e-39
-0.052704472 -0.082494147 0.8111335 8.1092301e-39
-0.052704472 -0.080707557 0.81113344 8.7553282e-39
-0.052687149 -0.078895025 0.81086677 8.2983143e-39
-0.052661162 -0.077070974 0.81046677 8.2064774e-39
-0.052656826 -0.075279668 0.81040007 8.0217218e-39
-0.052652497 -0.073488645 0.81033337 8.1142832e-39
-0.052583184 -0.071609423 0.80926675 7.1004872e-39
-0.052583184 -0.069826946 0.80926675 6.1778163e-39
-0.05253987 -0.067988403 0.80860001 3.3186839e-39
-0.052522544 -0.066185571 0.80833334 2.211249e-39
-0.05253987 -0.064426392 0.80860001 5.6232104e-39
-0.052535538 -0.06264022 0.80853337 6.6380811e-39
-0.052548531 -0.060874403 0.80873328 7.0068581e-39
-0.052635167 -0.059190512 0.81006682 4.3328261e-39
-0.052626502 -0.057396818 0.80993342 3.2257582e-39
-0.052687149 -0.055676963 0.81086677 3.8704074e-39
-0.052752119 -0.053957421 0.8118667 4.2388298e-39
-0.052786771 -0.052203484 0.81240004 3.8693256e-39
-0.052817095 -0.050443061 0.81286675 3.7774887e-39
-0.052847419 -0.048680585 0.81333327 3.8700458e-39
-0.052860413 -0.046900678 0.81353343 4.3321016e-39
-0.053012028 -0.045238178 0.81586671 5.1615021e-39
-0.05308567 -0.0435015 0.81700009 5.2540551e-39
-0.053154979 -0.041756436 0.81806672 4.7919979e-39
-0.053189635 -0.039980616 0.81860006 4.6990834e-39
-0.053237278 -0.038211782 0.81933337 4.699082e-39
-0.053250272 -0.036416013 0.81953347 5.3440885e-39
-0.053258937 -0.034616549 0.81966674 5.4366443e-39
-0.053271934 -0.032819171 0.81986678 5.9898195e-39
-0.053284928 -0.031020908 0.82006669 5.8983427e-39
-0.053328238 -0.029238384 0.82073331 5.9905369e-39
-0.05346686 -0.027501948 0.82286662 6.3593208e-39
-0.053596813 -0.025751954 0.82486671 6.2674867e-39
-0.053696454 -0.023979604 0.82639998 5.9912614e-39
-0.053813402 -0.022207651 0.82820004 4.2409892e-39
-0.053848054 -0.020396596 0.82873338 3.9640477e-39
-0.053891368 -0.018586181 0.82940012 3.2264799e-39
-0.053908698 -0.016764741 0.82966679 2.7651458e-39
-0.053917363 -0.014939729 0.82980007 2.6733089e-39
-0.053921692 -0.01311307 0.82986677 3.0428117e-39
-0.053978004 -0.011297005 0.83073342 2.7669465e-39
-0.054060303 -0.0094816787 0.83200002 1.5684047e-39
-0.054151282 -0.0076619955 0.83340007 6.4644841e-40
-0.054185931 -0.0058300877 0.83393347 0
-0.054190271 -0.0039935955 0.83400005 1.5669586e-39
-0.054168604 -0.0021557757 0.8336668 4.4250203e-39
-0.054164276 -0.00031952601 0.8336001 5.0700268e-39
-0.054194603 0.0015174 0.83406669 4.885997e-39
-0.054216262 0.0033558453 0.83440006 4.8852754e-39
-0.054268237 0.005198664 0.83520007 3.7778502e-39
-0.054346208 0.0070483782 0.83640009 3.6856588e-39
-0.05441118 0.0089012505 0.83740002 3.777853e-39
-0.054523803 0.01076794 0.83913338 3.5931044e-39
-0.054606121 0.012635251 0.84040004 3.5927415e-39
-0.054666765 0.014502393 0.84133333 4.4232182e-39
-0.05472308 0.016372353 0.84220016 4.699089e-39
-0.054788049 0.018249013 0.84319997 4.6079696e-39
-0.05484869 0.02012849 0.84413332 4.7923637e-39
-0.054966733 0.02203509 0.84595001 4.884918e-39
-0.055060942 0.023939332 0.84740007 5.7153934e-39
-0.055304147 0.025919786 0.85114288 5.8990672e-39
-0.055668391 0.027977563 0.8567487 5.8072317e-39
-0.056531332 0.030327577 0.87002975 6.084536e-39
-0.056538079 0.032247737 0.87013334 6.1774519e-39
-0.05669402 0.034258518 0.87253338 7.1908822e-39
-0.056901947 0.036313023 0.87573326 6.8228255e-39
-0.057053555 0.038343806 0.87806678 5.8075974e-39
-0.057274476 0.040433791 0.88146675 2.7637011e-39
-0.057456411 0.042509899 0.88426673 3.6856546e-39
-0.057543039 0.04452461 0.88560009 3.9615198e-39
-0.057694651 0.046597667 0.88793343 3.9615212e-39
-0.057841942 0.048677363 0.89020008 4.0537154e-39
-0.057954565 0.050736703 0.89193338 4.1469901e-39
-0.058071516 0.052807625 0.89373338 4.3317429e-39
-0.058110498 0.054812934 0.8943333 4.055156e-39
-0.058153816 0.056825101 0.89500016 3.4094292e-39
-0.058192797 0.058835823 0.89560014 3.2246764e-39
-0.058236118 0.060853731 0.89626682 3.1314018e-39
-0.058223125 0.062813826 0.89606673 3.0392048e-39
-0.058231782 0.064797126 0.89620006 3.0388446e-39
-0.05824478 0.066785976 0.89640009 3.1310403e-39
-0.058314096 0.068842202 0.89746666 3.1314004e-39
-0.058383405 0.070903145 0.8985334 3.2232373e-39
-0.058491696 0.073017411 0.90020001 3.2232359e-39
-0.058539346 0.075061277 0.90093333 3.4072656e-39
-0.058690961 0.077245213 0.90326673 4.7916406e-39
-0.058881547 0.079492055 0.90620005 5.1618637e-39
-0.059106808 0.081799753 0.90966672 5.0707498e-39
-0.059254091 0.084012181 0.91193336 5.0700296e-39
-0.059470687 0.086335234 0.91526669 4.7934455e-39
-0.059687261 0.088672966 0.91860002 3.779295e-39
-0.059979897 0.091140918 0.92310387 3.9636876e-39
-0.061335731 0.095280312 0.94397026 4.5161397e-39
-0.061735317 0.097993761 0.95012009 4.331024e-39
-0.061961431 0.10045306 0.95360005 3.7778544e-39
-0.062156368 0.1028761 0.95660007 3.6852959e-39
-0.062339924 0.10529312 0.95942497 3.5931016e-39
-0.062489908 0.10766476 0.96173328 3.6852973e-39
-0.062668242 0.11009634 0.9644779 4.1469957e-39
-0.06289909 0.11263409 0.96803081 4.1466341e-39
-0.082967564 0.16544567 1.276889 3.0420943e-39
-0.057860013 -0.20337088 0.92172313 1.1706316e-38
-0.057514705 -0.20013909 0.91622221 1.9087374e-38
-0.057214782 -0.19708793 0.91144454 1.8903336e-38
-0.05685059 -0.19383863 0.90564299 1.8074654e-38
-0.056621913 -0.1910722 0.90199995 1.6600254e-38
-0.056525663 -0.18876405 0.90046668 1.5953807e-38
-0.056429412 -0.18646264 0.89893341 1.5492831e-38
-0.056354083 -0.18423639 0.89773339 1.5213715e-38
-0.056278758 -0.18201542 0.89653337 1.5859797e-38
-0.056215979 -0.17983992 0.89553338 1.5584654e-38
-0.056178313 -0.17774825 0.89493346 1.5400986e-38
-0.056128096 -0.17561993 0.89413339 1.4940008e-38
-0.056077883 -0.1734952 0.89333344 1.4660174e-38
-0.056019291 -0.17134832 0.89239997 1.5028595e-38
-0.055948142 -0.16916761 0.89126676 1.5396659e-38
-0.055864446 -0.16695441 0.88993341 1.5765437e-38
-0.055839345 -0.16492008 0.8895334 1.5397018e-38
-0.055772383 -0.16276537 0.88846666 1.6597e-38
-0.055747274 -0.16073607 0.88806665 1.5952348e-38
-0.055630095 -0.15844627 0.88620013 1.5305537e-38
-0.055565227 -0.15631185 0.8851667 1.5120429e-38
-0.055458508 -0.15406576 0.88346678 1.5028954e-38
-0.055337612 -0.15178825 0.88154083 1.4846002e-38
-0.055299483 -0.1497433 0.88093334 1.4108438e-38
-0.055219963 -0.14759044 0.87966669 1.4292109e-38
-0.055182301 -0.14555356 0.87906671 1.5951632e-38
-0.055186488 -0.14362822 0.8791334 1.4569048e-38
-0.055119064 -0.14151874 0.87805927 1.226234e-38
-0.055073496 -0.13946934 0.87733328 1.3367978e-38
-0.055006541 -0.13736971 0.87626666 1.4290655e-38
-0.054956317 -0.135316 0.87546659 1.4383576e-38
-0.054889359 -0.13322522 0.87440002 1.3093558e-38
-0.054726146 -0.13090883 0.87180001 1.2724059e-38
-0.054650828 -0.12881106 0.87059999 1.3000272e-38
-0.054575495 -0.1267186 0.86940002 1.3462333e-38
-0.054508541 -0.12465055 0.86833346 1.3830761e-38
-0.054372523 -0.12243172 0.86616671 1.3738571e-38
-0.05414319 -0.12001555 0.86251348 1.5029316e-38
-0.053509906 -0.11673425 0.85242498 1.6044549e-38
-0.053170137 -0.11412743 0.84701264 1.5584296e-38
-0.052758716 -0.11139314 0.84045839 1.5767609e-38
-0.052183565 -0.10834777 0.83129597 1.6136397e-38
-0.0519109 -0.10596021 0.82695246 1.6044919e-38
-0.051698662 -0.10371303 0.8235715 1.5769413e-38
-0.051528875 -0.10156437 0.8208667 1.5863049e-38
-0.051386587 -0.099480882 0.81860006 1.6138913e-38
-0.051223379 -0.097367607 0.8160001 1.0699743e-38
-0.051168974 -0.095468767 0.81513339 1.0696855e-38
-0.051114567 -0.093573801 0.81426674 9.5008316e-39
-0.051110379 -0.091772772 0.8142001 1.0236239e-38
-0.051064339 -0.089898385 0.81346679 1.1526261e-38
-0.051014129 -0.088019997 0.81266659 1.1066721e-38
-0.050984837 -0.08618053 0.81220013 5.9883691e-39
-0.050976466 -0.084377736 0.81206679 5.6213873e-39
-0.050938804 -0.082528062 0.81146663 9.1251883e-39
-0.050909512 -0.080694295 0.81100011 8.9415201e-39
-0.050876036 -0.078856103 0.81046683 8.8500476e-39
-0.050855104 -0.077039279 0.81013352 8.2986745e-39
-0.050842546 -0.075236313 0.80993342 8.2068362e-39
-0.050829988 -0.073434234 0.80973333 7.9298892e-39
-0.050779771 -0.071579926 0.80893332 8.0213603e-39
-0.050767217 -0.069780923 0.80873328 6.8228255e-39
-0.050708618 -0.067921147 0.80780005 3.0384943e-39
-0.050708618 -0.066141903 0.80780005 1.7477569e-39
-0.050725359 -0.064383902 0.80806667 4.8845607e-39
-0.050763026 -0.062650539 0.80866677 6.0845416e-39
-0.050775584 -0.060884442 0.80886668 7.0979719e-39
-0.050859287 -0.059200253 0.81020004 5.5320853e-39
-0.050855104 -0.057410993 0.8101334 3.8725626e-39
-0.050917879 -0.055695277 0.81113333 3.9636806e-39
-0.050959725 -0.053952992 0.81180006 4.5150537e-39
-0.050989021 -0.052194916 0.81226671 4.3303023e-39
-0.050989021 -0.050405834 0.81226677 4.2377452e-39
-0.051043425 -0.048668616 0.8131333 4.1455523e-39
-0.051047605 -0.04688146 0.8132 4.0529952e-39
-0.051210832 -0.045234483 0.81580007 3.9626002e-39
-0.051281966 -0.043497946 0.81693339 4.5150565e-39
-0.051340558 -0.041746225 0.81786662 5.067866e-39
-0.051407512 -0.039996896 0.81893337 4.7912791e-39
-0.051482845 -0.038249094 0.82013345 4.6990806e-39
-0.05150377 -0.036457486 0.8204667 5.2515342e-39
-0.051516317 -0.034658782 0.82066667 5.2522516e-39
-0.051549796 -0.032872543 0.82120007 5.6217544e-39
-0.051574908 -0.031078909 0.82160008 5.8057869e-39
-0.051641874 -0.029307265 0.8226667 5.9901768e-39
-0.051763229 -0.027559884 0.82459998 6.2671252e-39
-0.0518553 -0.025789417 0.82606673 6.1752897e-39
-0.051964108 -0.024020227 0.82779998 6.1752911e-39
-0.052039437 -0.022229103 0.82900012 4.3331848e-39
-0.052056178 -0.020409724 0.82926679 3.9636876e-39
-0.052093845 -0.018596638 0.82986671 3.4105138e-39
-0.052110579 -0.016774174 0.83013344 3.3186755e-39
-0.052106392 -0.014944529 0.8300668 3.3190357e-39
-0.052114766 -0.013118339 0.83020008 4.1491565e-39
-0.052152429 -0.011297911 0.83080012 4.1495194e-39
-0.052198462 -0.009476359 0.83153337 3.6889e-39
-0.052294716 -0.0076589305 0.8330667 3.780374e-39
-0.05234075 -0.0058291559 0.83380008 3.1353661e-39
-0.052311454 -0.0039904029 0.83333331 3.3186727e-39
-0.052319828 -0.0021552583 0.83346677 4.5164929e-39
-0.052324012 -0.00031950042 0.83353341 5.0685876e-39
-0.05233657 0.0015167935 0.83373338 4.792721e-39
-0.052357491 0.0033545049 0.83406669 4.8841964e-39
-0.052399341 0.0051957597 0.83473337 3.8700402e-39
-0.05247885 0.0070450078 0.83600008 4.6083283e-39
-0.052541621 0.0088969981 0.83699995 4.5164957e-39
-0.052633695 0.010759386 0.83846682 3.870406e-39
-0.052729942 0.012629238 0.84000003 3.6852916e-39
-0.052759241 0.014487454 0.84046668 4.9763934e-39
-0.052822012 0.016358096 0.84146672 4.4232196e-39
-0.052851312 0.0182216 0.84193337 4.3310226e-39
-0.052905705 0.020096697 0.84280008 4.3313869e-39
-0.053039633 0.022008607 0.84493345 4.4235826e-39
-0.053094029 0.023894131 0.8458001 5.9916201e-39
-0.053232137 0.025824072 0.84799999 6.0838158e-39
-0.053864945 0.028021064 0.85808092 6.3611243e-39
-0.054508138 0.030268226 0.86832702 6.4536787e-39
-0.054634087 0.03225515 0.87033343 6.6377098e-39
-0.054793105 0.034271598 0.87286669 7.2834379e-39
-0.054964688 0.036307503 0.87559998 6.7299138e-39
-0.055069316 0.03830887 0.87726676 6.0841815e-39
-0.05521578 0.040348161 0.87960011 3.1324836e-39
-0.055316225 0.04236247 0.88120002 3.9618799e-39
-0.055370625 0.04434697 0.88206673 3.9615198e-39
-0.055487804 0.046387754 0.88393342 3.9615212e-39
-0.055633686 0.048461761 0.88625723 3.9615212e-39
-0.055801675 0.050566055 0.88893336 4.0544329e-39
-0.055906296 0.052622486 0.89060003 4.2395458e-39
-0.055948138 0.054624975 0.8912667 4.1466313e-39
-0.056065325 0.056706589 0.8931334 3.4087076e-39
-0.056132291 0.058743857 0.89420003 3.3161518e-39
-0.056161582 0.060745094 0.89466679 3.3157903e-39
-0.056157395 0.062711015 0.89460003 3.0395649e-39
-0.056153212 0.064676635 0.89453334 3.0392048e-39
-0.056169946 0.066666774 0.89480007 3.2239534e-39
-0.056215983 0.068693899 0.89553338 3.3165091e-39
-0.056253638 0.070713751 0.89613342 3.8689612e-39
-0.056328971 0.072784901 0.89733338 4.1455481e-39
-0.056408487 0.074866891 0.89860004 4.4224923e-39
-0.056525663 0.077005759 0.90046674 5.5299231e-39
-0.056680508 0.079205491 0.90293336 5.4391708e-39
-0.056855574 0.081445076 0.90572226 4.9781955e-39
-0.057090629 0.083784953 0.9094668 4.9778353e-39
-0.057350095 0.086178027 0.91360003 4.7934455e-39
-0.057563528 0.088518515 0.917 4.2402745e-39
-0.057815038 0.090933882 0.92100662 4.0555231e-39
-0.058803517 0.094551861 0.93675333 4.4242986e-39
-0.059451889 0.097680464 0.94708234 4.5154167e-39
-0.059689462 0.10016514 0.9508667 4.1469971e-39
-0.059886154 0.10259648 0.95400006 3.5931002e-39
-0.060011696 0.10491724 0.95599997 3.5931016e-39
-0.060110342 0.10719883 0.95757145 3.6852987e-39
-0.060182091 0.10943843 0.95871437 3.8704088e-39
-0.060346756 0.11185531 0.96133763 3.8707675e-39
-0.056770321 -0.20886116 0.93725002 8.8507805e-39
-0.056360915 -0.20530544 0.93049091 1.0138637e-38
-0.05567817 -0.20079371 0.91921908 1.8808985e-38
-0.055441454 -0.19792403 0.9153111 1.973094e-38
-0.055141386 -0.19484767 0.91035712 1.8719306e-38
-0.054872904 -0.19190356 0.90592468 1.6508057e-38
-0.054622203 -0.18904056 0.90178567 1.5032568e-38
-0.054554425 -0.18682218 0.90066677 1.3834028e-38
-0.054449428 -0.18448263 0.89893341 1.3922249e-38
-0.054384824 -0.18228613 0.89786661 1.5673963e-38
-0.054316174 -0.18008089 0.89673328 1.5214787e-38
-0.054275792 -0.17797333 0.89606667 1.4570497e-38
-0.054247525 -0.17590803 0.89560008 1.4016603e-38
-0.054223299 -0.1738577 0.89520001 1.4289947e-38
-0.054166771 -0.17170671 0.89426672 1.4566171e-38
-0.0541385 -0.16964844 0.89379996 1.5212261e-38
-0.054114275 -0.16760476 0.89340001 1.6042024e-38
-0.054081969 -0.1655381 0.89286667 1.5397374e-38
-0.054049663 -0.16347374 0.89233339 1.6504447e-38
-0.053968906 -0.16126701 0.89100009 1.6229298e-38
-0.053863909 -0.1589946 0.88926679 1.5952348e-38
-0.05380132 -0.15685339 0.88823336 1.5767241e-38
-0.053719547 -0.15466158 0.88688344 1.5491734e-38
-0.05363778 -0.15247567 0.88553339 1.4938562e-38
-0.053581245 -0.15036656 0.88459998 1.3186482e-38
-0.053410299 -0.14794463 0.88177788 1.2448195e-38
-0.053399537 -0.145973 0.88160002 1.5306264e-38
-0.053399537 -0.14403123 0.88160014 1.6136023e-38
-0.053338964 -0.14192824 0.88060009 1.5583926e-38
-0.053290505 -0.13986143 0.87980008 1.5030383e-38
-0.053213783 -0.13772507 0.87853336 1.4938189e-38
-0.053153209 -0.13563545 0.87753326 1.4477215e-38
-0.053100716 -0.13357057 0.87666667 1.3740375e-38
-0.052959379 -0.13128923 0.87433332 1.4201354e-38
-0.052878618 -0.12916619 0.87299997 1.3923313e-38
-0.052789785 -0.12702955 0.87153333 1.4476126e-38
-0.052753448 -0.1250238 0.87093341 1.4568686e-38
-0.0526646 -0.12289818 0.86946684 1.355418e-38
-0.052541442 -0.12070017 0.86743331 1.3645661e-38
-0.052116934 -0.11782981 0.86042506 1.5859798e-38
-0.051544096 -0.11466034 0.85096753 1.5583214e-38
-0.051191393 -0.11201423 0.84514463 1.5490302e-38
-0.050307233 -0.10825024 0.83054769 1.5952006e-38
-0.050208207 -0.1062114 0.82891279 1.6045279e-38
-0.049918715 -0.10378377 0.82413334 1.5769413e-38
-0.049745075 -0.10161386 0.82126671 1.5955247e-38
-0.049611818 -0.099537596 0.8190667 1.5862331e-38
-0.049422026 -0.097359642 0.81593335 8.7636421e-39
-0.049373575 -0.095468774 0.81513345 1.0420268e-38
-0.049345307 -0.093619779 0.81466675 9.1316904e-39
-0.049321078 -0.091780297 0.81426674 7.5629241e-39
-0.049284723 -0.089920498 0.8136667 8.6681927e-39
-0.049248386 -0.088063329 0.81306672 9.4961513e-39
-0.04920397 -0.086194672 0.81233335 7.2827191e-39
-0.049175706 -0.084356949 0.81186676 7.0054049e-39
-0.049151484 -0.08252804 0.81146675 9.2173868e-39
-0.049103022 -0.080661133 0.8106668 8.8500434e-39
-0.049070716 -0.078823678 0.81013352 8.9429635e-39
-0.049050521 -0.077007584 0.80980015 8.8511322e-39
-0.049038406 -0.075205341 0.80960006 8.6663822e-39
-0.049022257 -0.073397964 0.80933338 7.6504212e-39
-0.048969761 -0.071538642 0.80846667 8.0195681e-39
-0.048937462 -0.069711901 0.80793345 7.7437056e-39
-0.048893046 -0.067870699 0.8071999 3.7767726e-39
-0.048884969 -0.066081859 0.80706662 2.9470119e-39
-0.04889708 -0.064320169 0.80726659 5.713957e-39
-0.048945531 -0.062604047 0.80806661 5.9909013e-39
-0.048993986 -0.060884442 0.80886668 7.097246e-39
-0.04904649 -0.059166156 0.80973339 6.7306257e-39
-0.049058609 -0.057396818 0.80993336 6.1767345e-39
-0.049131285 -0.055695277 0.81113338 5.7157535e-39
-0.049179744 -0.053961854 0.81193334 5.2533334e-39
-0.049183782 -0.052177783 0.81199998 4.883832e-39
-0.049208008 -0.0504141 0.81239998 4.5146894e-39
-0.04924031 -0.048656646 0.81293333 4.606885e-39
-0.049244352 -0.04686993 0.81299996 4.4217763e-39
-0.049385689 -0.045208596 0.81533343 3.7778488e-39
-0.049454331 -0.043473106 0.81646675 4.1459083e-39
-0.049518939 -0.041729212 0.81753343 5.0685862e-39
-0.049615856 -0.04000666 0.8191334 4.9756703e-39
-0.049692582 -0.038261529 0.82040012 4.9753088e-39
-0.049716808 -0.036472294 0.82080007 5.1593385e-39
-0.049765266 -0.034698196 0.82159996 5.2522502e-39
-0.04982179 -0.032925922 0.82253337 5.6199537e-39
-0.049870256 -0.031144472 0.82333338 5.8039863e-39
-0.04993891 -0.029371388 0.82446665 5.9894537e-39
-0.050051965 -0.027617814 0.82633328 6.3582376e-39
-0.050132733 -0.025839368 0.82766664 6.358595e-39
-0.05021349 -0.024055047 0.82900012 6.4511549e-39
-0.050294261 -0.022264857 0.83033341 5.0693093e-39
-0.050298296 -0.020437611 0.83040005 3.9633233e-39
-0.050330594 -0.018620541 0.83093339 3.8704102e-39
-0.050334632 -0.016791683 0.83100003 3.9626072e-39
-0.050334632 -0.014961332 0.83100003 3.9629659e-39
-0.050334632 -0.013130981 0.83100009 4.3317485e-39
-0.050346751 -0.011303351 0.8312 4.5168572e-39
-0.050379053 -0.0094786389 0.83173341 4.9785542e-39
-0.050475966 -0.0076613822 0.83333337 5.3466137e-39
-0.050480001 -0.0058263596 0.83340007 4.7945231e-39
-0.05046789 -0.003989765 0.8332001 4.7012456e-39
-0.050475962 -0.0021549135 0.83333337 4.792721e-39
-0.050488081 -0.00031950045 0.83353341 5.068589e-39
-0.050496157 0.0015166723 0.83366668 4.8841964e-39
-0.050528463 0.0033550411 0.83420002 4.8841978e-39
-0.050564807 0.0051961746 0.83480006 4.9767465e-39
-0.050621338 0.00704276 0.83573341 5.5295658e-39
-0.050710179 0.0088991253 0.83720005 4.7920007e-39
-0.050778825 0.010757674 0.83833343 4.4235784e-39
-0.050855543 0.012623223 0.83960003 4.6076081e-39
-0.050879769 0.014479411 0.84000003 4.9763948e-39
-0.050948419 0.016351614 0.84113336 3.7778516e-39
-0.050980724 0.018215828 0.84166676 3.8700458e-39
-0.051049378 0.020096697 0.84280008 4.2384738e-39
-0.051170517 0.022005133 0.84480006 4.23955e-39
-0.051231083 0.023894131 0.8458001 6.2678455e-39
-0.051364347 0.025824074 0.84800011 6.5455142e-39
-0.051875833 0.027967628 0.85644442 6.7306271e-39
-0.052563429 0.030249728 0.86779636 6.91574e-39
-0.052630786 0.032202337 0.86890835 7.0075741e-39
-0.052834202 0.034248039 0.87226665 6.9150198e-39
-0.052963428 0.03625774 0.87440008 6.6380783e-39
-0.053072449 0.038262293 0.87620002 6.0841815e-39
-0.053185519 0.04027782 0.87806678 3.3168735e-39
-0.053262241 0.042272735 0.87933338 3.8700444e-39
-0.053314738 0.044253115 0.88020015 3.8696843e-39
-0.053411651 0.046275802 0.88180012 3.8696843e-39
-0.05348837 0.048287306 0.88306671 3.7778502e-39
-0.053674124 0.050406773 0.88613331 4.1462712e-39
-0.053783156 0.052464917 0.88793343 4.1466327e-39
-0.053835645 0.054473795 0.88880002 3.7778516e-39
-0.053936601 0.056537274 0.89046669 3.869327e-39
-0.054017361 0.058586195 0.89180005 3.5930988e-39
-0.05405774 0.060595725 0.89246666 3.5001801e-39
-0.054061778 0.062566124 0.8925333 3.5001815e-39
-0.054061778 0.064532027 0.8925333 3.5001815e-39
-0.05406582 0.066502869 0.8926 3.5934547e-39
-0.054086015 0.068494461 0.89293343 4.0544343e-39
-0.054110236 0.070492812 0.89333338 4.423214e-39
-0.054158699 0.072525345 0.89413345 4.6079668e-39
-0.054263685 0.074639134 0.89586663 5.0685848e-39
-0.054372713 0.076766297 0.89766681 5.5299245e-39
-0.054542311 0.078989118 0.90046668 5.0696708e-39
-0.054754984 0.081288196 0.90397781 4.7923637e-39
-0.054983806 0.083627306 0.90775561 4.7920049e-39
-0.055232819 0.086014517 0.91186678 4.7008897e-39
-0.055438764 0.088351198 0.91526675 4.608334e-39
-0.055634208 0.090685725 0.91849327 4.5161397e-39
-0.057132773 0.097283557 0.94323397 4.7930839e-39
-0.05735309 0.099744283 0.94687146 4.6086927e-39
-0.057564229 0.10220472 0.95035714 3.8700458e-39
-0.057728648 0.10459585 0.95307148 3.5019864e-39
-0.057809114 0.1068438 0.9544 3.7778516e-39
-0.057823829 0.10897367 0.95464295 3.9618855e-39
-0.057889879 0.11120326 0.9557333 3.9622457e-39
-0.054692063 -0.20674433 0.93701208 7.9266578e-39
-0.053948686 -0.20189847 0.92427635 1.6780681e-38
-0.053652611 -0.19876572 0.91920364 1.9730219e-38
-0.053411342 -0.19585638 0.91507012 1.89037e-38
-0.053127073 -0.19280921 0.9102 1.7338175e-38
-0.052724887 -0.18935995 0.90330952 1.5954879e-38
-0.052648447 -0.18709874 0.90200001 1.3650345e-38
-0.052547276 -0.18475628 0.90026671 1.2816974e-38
-0.05247334 -0.18251623 0.89900011 1.4842761e-38
-0.052422404 -0.18036082 0.89812738 1.5489569e-38
-0.05239163 -0.17827791 0.89760005 1.4937472e-38
-0.052372165 -0.17623538 0.89726669 1.4385014e-38
-0.052348826 -0.17418137 0.8968668 1.4382497e-38
-0.052313805 -0.17209075 0.89626676 1.4750201e-38
-0.052294351 -0.17005339 0.89593339 1.5119346e-38
-0.05227489 -0.16801746 0.89560008 1.6134933e-38
-0.052251544 -0.1659707 0.89520001 1.6134937e-38
-0.052212633 -0.16387679 0.8945334 1.668848e-38
-0.052150369 -0.16171344 0.89346671 1.6505527e-38
-0.052064762 -0.15948327 0.89200008 1.6137464e-38
-0.051971368 -0.15723601 0.89039999 1.6228943e-38
-0.051889651 -0.15503071 0.889 1.6230384e-38
-0.051858526 -0.15298076 0.88846672 1.5953434e-38
-0.051796272 -0.1508425 0.88740009 1.3833288e-38
-0.051698986 -0.1486083 0.88573349 1.2541106e-38
-0.05165229 -0.14652495 0.88493335 1.3093565e-38
-0.05162894 -0.14451045 0.88453346 1.4568698e-38
-0.051588081 -0.14244936 0.88383335 1.549173e-38
-0.051488865 -0.1402324 0.88213336 1.5767588e-38
-0.051422711 -0.13811174 0.8810001 1.5675037e-38
-0.051333211 -0.13593428 0.87946665 1.5307336e-38
-0.05125539 -0.13379402 0.87813324 1.4939277e-38
-0.051177561 -0.13165966 0.8768 1.4938921e-38
-0.051091958 -0.12951142 0.87533343 1.5860151e-38
-0.051002454 -0.12735993 0.87380004 1.5953783e-38
-0.050959654 -0.12533003 0.87306672 1.613782e-38
-0.050870158 -0.1231903 0.87153339 1.4200991e-38
-0.050784547 -0.12106659 0.87006682 1.2541469e-38
-0.05072229 -0.1190041 0.86900008 1.4568702e-38
-0.050543778 -0.11667797 0.86594164 1.4938203e-38
-0.050013635 -0.11356686 0.85685903 1.4753089e-38
-0.048529301 -0.10836506 0.83142865 1.4476873e-38
-0.048287023 -0.1060019 0.82727778 1.6136034e-38
-0.048122942 -0.10382576 0.82446659 1.586089e-38
-0.047947835 -0.1016386 0.82146668 1.5679735e-38
-0.047831099 -0.099586204 0.81946665 1.5863048e-38
-0.047675438 -0.097463064 0.81680006 8.2108061e-39
-0.047636535 -0.095585905 0.81613332 1.0791928e-38
-0.047593731 -0.093704037 0.81540006 1.1345826e-38
-0.047585957 -0.09189301 0.81526679 1.0516061e-38
-0.047519799 -0.089972064 0.81413347 1.0422418e-38
-0.04746921 -0.088084981 0.81326669 1.0326985e-38
-0.047430299 -0.086222969 0.81260002 8.3908701e-39
-0.047399171 -0.084377728 0.81206673 7.1915954e-39
-0.047348581 -0.082500935 0.81120008 9.1251897e-39
-0.047305781 -0.080641225 0.81046671 9.1262715e-39
-0.047255196 -0.078771785 0.80960006 9.034799e-39
-0.047266863 -0.077007584 0.80980003 8.7585736e-39
-0.04722796 -0.075162008 0.80913329 8.1128483e-39
-0.047216285 -0.07336168 0.80893332 6.9128576e-39
-0.047181256 -0.07152684 0.80833334 7.1894501e-39
-0.047138449 -0.069683127 0.80760002 7.0983334e-39
-0.04710732 -0.067859486 0.80706668 4.146274e-39
-0.047095649 -0.066065475 0.80686671 3.4083488e-39
-0.047103424 -0.064298891 0.80700004 5.438089e-39
-0.047157917 -0.062593728 0.80793321 5.9912614e-39
-0.047192935 -0.060859349 0.80853331 6.7295425e-39
-0.047262978 -0.059166159 0.80973333 7.0072126e-39
-0.047301888 -0.057429891 0.81040007 7.0064937e-39
-0.047360256 -0.055713587 0.81140012 6.8228185e-39
-0.047422521 -0.053997297 0.81246662 5.6228376e-39
-0.047441971 -0.052229185 0.81279999 4.9767465e-39
-0.04746921 -0.050467882 0.81326675 5.0685792e-39
-0.047496449 -0.04870452 0.81373328 5.1600588e-39
-0.047504235 -0.04691989 0.81386662 4.8831146e-39
-0.047601514 -0.045219697 0.81553346 4.2384668e-39
-0.047667667 -0.043483753 0.81666672 4.6068864e-39
-0.047722142 -0.041732613 0.81760013 4.9760333e-39
-0.047831096 -0.040022947 0.81946677 4.8845551e-39
-0.047947831 -0.038311277 0.82146668 5.068582e-39
-0.048010092 -0.036549315 0.82253337 5.1604147e-39
-0.048072353 -0.034782659 0.82359999 5.2518915e-39
-0.048142388 -0.033016656 0.82479995 5.5281196e-39
-0.048200771 -0.031237781 0.8258 5.7117892e-39
-0.048247464 -0.029447382 0.82660002 6.1727646e-39
-0.048313614 -0.027664604 0.82773328 6.2660406e-39
-0.048383657 -0.025878912 0.82893342 6.4500675e-39
-0.048442021 -0.024082128 0.8299334 6.543345e-39
-0.04849261 -0.022277372 0.83080006 5.6221159e-39
-0.0484965 -0.020449098 0.83086675 4.0551518e-39
-0.048515961 -0.018626517 0.83120006 3.870406e-39
-0.048527636 -0.016799768 0.83140004 4.0547972e-39
-0.048519854 -0.014966133 0.83126664 4.0551574e-39
-0.048512064 -0.013133087 0.83113343 4.3306695e-39
-0.048543196 -0.011309696 0.83166677 4.4239427e-39
-0.048582111 -0.0094854748 0.83233339 4.9774724e-39
-0.048667714 -0.0076656728 0.83380008 4.8852782e-39
-0.04869106 -0.0058319517 0.83420002 4.7930853e-39
-0.048656039 -0.0039916793 0.83360004 4.7927238e-39
-0.048648257 -0.0021552583 0.83346671 4.9771095e-39
-0.048683278 -0.00031970491 0.83406681 5.2529733e-39
-0.048694957 0.0015177638 0.83426672 5.2526146e-39
-0.048737757 0.0033582586 0.8350001 5.2529761e-39
-0.048749432 0.005198665 0.83520013 5.5295602e-39
-0.048792236 0.0070444453 0.83593345 5.8983441e-39
-0.048866164 0.0088991253 0.83720011 4.7923595e-39
-0.0489401 0.010759385 0.83846664 4.7919979e-39
-0.048994575 0.012620217 0.83939999 5.0682233e-39
-0.049021807 0.01447711 0.8398667 4.9763906e-39
-0.049087975 0.016349025 0.84100002 4.0544357e-39
-0.049154121 0.018225927 0.84213346 4.4232182e-39
-0.049231943 0.020112596 0.8434667 4.0540826e-39
-0.049344782 0.022020765 0.84540004 4.2391913e-39
-0.049414828 0.023916733 0.84660012 6.729181e-39
-0.049551021 0.025852498 0.8489334 7.0057735e-39
-0.050001118 0.02797416 0.85664451 7.007214e-39
-0.050468545 0.030140145 0.86465281 7.099774e-39
-0.05069894 0.032190908 0.86860013 7.0994124e-39
-0.050862379 0.034214012 0.87139994 6.7306327e-39
-0.051002454 0.036232855 0.87379998 6.1774603e-39
-0.051080287 0.038215708 0.87513345 5.8075988e-39
-0.051173672 0.040216658 0.87673336 3.317235e-39
-0.051251505 0.042211842 0.87806672 3.6856546e-39
-0.051313754 0.044199489 0.8791334 3.9611611e-39
-0.051407147 0.046219822 0.88073337 3.9611625e-39
-0.051477183 0.048225336 0.88193345 3.9611597e-39
-0.051555004 0.050243713 0.88326669 4.0537168e-39
-0.05167564 0.052311294 0.88533336 3.9615226e-39
-0.051702879 0.054289926 0.88580006 3.7771327e-39
-0.051807944 0.056355264 0.88760006 3.684577e-39
-0.051870205 0.05838035 0.88866681 3.5927401e-39
-0.051924672 0.060401089 0.8896001 3.2239534e-39
-0.051944129 0.062383872 0.88993335 3.3161504e-39
-0.051959693 0.064363323 0.89020002 3.5005403e-39
-0.051944133 0.066304184 0.88993341 3.7782061e-39
-0.051971368 0.068300128 0.89039999 4.0544357e-39
-0.05201029 0.070313931 0.89106667 4.4228553e-39
-0.052076437 0.07236851 0.89220005 4.8838348e-39
-0.052169822 0.074466959 0.89380002 5.2529761e-39
-0.052270997 0.07658387 0.89553332 5.3455347e-39
-0.052438322 0.078807823 0.89840007 4.8859998e-39
-0.05265623 0.081122346 0.90213335 4.6079738e-39
-0.052858576 0.083428726 0.90560013 4.7923623e-39
-0.053123176 0.085851036 0.91013336 4.8845607e-39
-0.053302187 0.088151701 0.91320014 4.7005296e-39
-0.053512316 0.090518527 0.91680014 4.700531e-39
-0.054758556 0.096759371 0.93815154 5.6228432e-39
-0.054961383 0.09919177 0.94162643 5.4384548e-39
-0.055379272 0.10203572 0.94878572 5.0689478e-39
-0.055496007 0.104345 0.95078576 4.423584e-39
-0.055529263 0.10650298 0.95135564 4.1466355e-39
-0.055506043 0.108553 0.95095772 3.9618841e-39
-0.055559576 0.1107543 0.95187503 3.9618869e-39
-0.055546451 0.11282422 0.95165002 4.3310268e-39
-0.051628206 -0.19674201 0.91920775 1.8443438e-38
-0.051436469 -0.19399419 0.91579396 1.8074661e-38
-0.051038835 -0.19049299 0.90871423 1.7614759e-38
-0.050813802 -0.18766038 0.90470767 1.6876468e-38
-0.050895471 -0.18596615 0.90616202 1.4200988e-38
-0.050632238 -0.18301874 0.90147513 1.3644576e-38
-0.050587513 -0.18087319 0.90067881 1.4842759e-38
-0.050493553 -0.17855714 0.89900607 1.5487767e-38
-0.050504453 -0.17661513 0.89920002 1.5395932e-38
-0.050492536 -0.17459334 0.89898783 1.4842039e-38
-0.050470751 -0.17253876 0.89860004 1.5119342e-38
-0.050422076 -0.17039505 0.89773345 1.5211899e-38
-0.050395865 -0.16833016 0.89726669 1.5950542e-38
-0.050347187 -0.16619314 0.89640009 1.687322e-38
-0.050335955 -0.16418211 0.89620006 1.7150895e-38
-0.050264813 -0.16197889 0.89493346 1.6783192e-38
-0.050219879 -0.15986468 0.89413339 1.6506605e-38
-0.050144989 -0.15765983 0.89280009 1.6413695e-38
-0.050085083 -0.15550736 0.89173329 1.6138188e-38
-0.050047636 -0.15342845 0.89106667 1.5953437e-38
-0.04998773 -0.15128447 0.89000005 1.5308779e-38
-0.049931567 -0.14915636 0.88900012 1.457013e-38
-0.049882889 -0.14705481 0.88813341 1.2172326e-38
-0.049856674 -0.14502236 0.88766676 1.3001372e-38
-0.049770553 -0.14282005 0.88613331 1.4016608e-38
-0.049726367 -0.14074323 0.88534671 1.6321487e-38
-0.049634255 -0.13853607 0.88370669 1.6598435e-38
-0.049545888 -0.13634644 0.88213342 1.6691352e-38
-0.049463514 -0.13418002 0.88066679 1.6139266e-38
-0.049339946 -0.13190991 0.87846667 1.484781e-38
-0.04929876 -0.12986651 0.87773341 1.5399903e-38
-0.049186427 -0.12764171 0.87573338 1.6044909e-38
-0.049122773 -0.12555012 0.87460005 1.6045271e-38
-0.049044136 -0.12342588 0.8732 1.4663776e-38
-0.048946787 -0.1212614 0.87146676 1.3557055e-38
-0.048905596 -0.11924148 0.87073338 1.3647459e-38
-0.048800752 -0.1170721 0.8688668 1.4844924e-38
-0.048577525 -0.11463158 0.8648923 1.5029676e-38
-0.047496304 -0.11021754 0.84564197 1.32776e-38
-0.046496961 -0.10607512 0.82784927 1.5304479e-38
-0.046355654 -0.10393491 0.8253333 1.5675421e-38
-0.046194654 -0.10176233 0.82246673 1.558754e-38
-0.046101037 -0.099748239 0.82080007 1.5955242e-38
-0.045966245 -0.097653978 0.81840008 1.0239109e-38
-0.045902587 -0.09571863 0.81726676 1.2081948e-38
-0.045838933 -0.093788318 0.81613338 1.2175947e-38
-0.045820214 -0.091953136 0.81580007 1.0608255e-38
-0.045764044 -0.090045743 0.81480014 1.0421698e-38
-0.045707878 -0.088142753 0.81379998 1.0789041e-38
-0.045662943 -0.086265408 0.81300002 9.7752451e-39
-0.045614269 -0.084384657 0.81213343 9.2202622e-39
-0.045573082 -0.082521275 0.81140006 9.9560224e-39
-0.04550942 -0.080621324 0.81026667 1.1062736e-38
-0.045468234 -0.078765295 0.80953342 9.6816047e-39
-0.045475725 -0.076994903 0.80966675 7.0979733e-39
-0.045449514 -0.075168185 0.80919993 5.7139668e-39
-0.045419559 -0.07333751 0.80866659 5.2515356e-39
-0.045397092 -0.071520932 0.8082667 5.3440955e-39
-0.045367137 -0.069694646 0.80773336 5.8969106e-39
-0.045340929 -0.067876309 0.80726665 4.9749529e-39
-0.04532595 -0.066076405 0.80700004 3.7767726e-39
-0.045329697 -0.06430421 0.80706668 3.9611611e-39
-0.045382116 -0.062598899 0.80799997 4.4217805e-39
-0.045423303 -0.060874406 0.8087334 5.4362897e-39
-0.045494452 -0.059185643 0.81000006 6.2678483e-39
-0.04556185 -0.057486586 0.81120002 6.2678455e-39
-0.045621756 -0.055773094 0.81226659 6.8206577e-39
-0.045692902 -0.054068189 0.81353337 7.0043301e-39
-0.04570039 -0.052284878 0.81366688 6.9121331e-39
-0.045719109 -0.05051339 0.81400013 6.1756442e-39
-0.045752808 -0.048756395 0.81460011 5.4377261e-39
-0.045749072 -0.046958324 0.81453341 5.3451675e-39
