ply
format ascii 1.0
comment PCL generated
element vertex 1052
property float x
property float y
property float z
property uchar red
property uchar green
property uchar blue
element camera 0
property float view_px
property float view_py
property float view_pz
property float x_axisx
property float x_axisy
property float x_axisz
property float y_axisx
property float y_axisy
property float y_axisz
property float z_axisx
property float z_axisy
property float z_axisz
property float focal
property float scalex
property float scaley
property float centerx
property float centery
property int viewportx
property int viewporty
property float k1
property float k2
end_header
0.042299755 -0.04593109 0.98484993 56 49 38
0.042321231 -0.043784089 0.98534995 57 48 36
0.042342708 -0.041634891 0.98585016 59 48 37
0.042353444 -0.039473474 0.98610008 68 53 39
0.042357735 -0.037305277 0.98620015 73 55 41
0.042353444 -0.035129521 0.98610002 70 59 44
0.04234485 -0.032950871 0.98590004 75 59 45
0.042329822 -0.030768413 0.98555005 79 63 48
0.042284727 -0.028567189 0.98450005 87 75 56
0.04224607 -0.026374605 0.98359996 78 67 50
0.042241767 -0.024205681 0.9835 80 68 48
0.042222455 -0.022029351 0.98305005 97 85 67
0.042263247 -0.019883299 0.98399991 98 84 65
0.042280432 -0.017723152 0.98440009 99 87 68
0.042303164 -0.015563279 0.98492908 102 88 71
0.042384893 -0.013419767 0.98683226 104 91 74
0.042436589 -0.011259897 0.9880358 109 97 79
0.042450082 -0.0090865521 0.98835003 104 94 78
0.042430758 -0.0069064796 0.98790008 100 89 75
0.042398546 -0.004726951 0.98715001 95 86 69
0.042342708 -0.0025493056 0.98585004 87 79 62
0.042329822 -0.00037776979 0.98555005 87 77 62
0.042327669 0.0017928996 0.98550004 82 72 59
0.042271838 0.0039583212 0.9842 81 69 60
0.042327669 0.0061342004 0.98550004 80 67 60
0.042331971 0.008305693 0.98560011 78 64 60
0.042331971 0.010476563 0.98559999 78 69 66
0.042400692 0.012667963 0.98720008 73 61 59
0.042387806 0.014837851 0.98690015 73 61 56
0.042383514 0.017009858 0.98680001 77 64 60
0.042430755 0.019204756 0.98790014 81 65 61
0.042424314 0.021377448 0.98775017 64 53 53
0.042462971 0.023574512 0.98865002 63 50 50
0.04251451 0.025783356 0.98985016 80 73 69
0.042531691 0.027974892 0.99025011 95 87 77
0.042585377 0.030194068 0.99150002 93 88 76
0.04263477 0.032415491 0.99264991 95 88 77
0.042705648 0.034659401 0.99430001 94 86 75
0.042772219 0.036906876 0.99585009 91 84 73
0.042788319 0.039115049 0.996225 113 106 93
0.042883884 0.041401587 0.9984501 128 121 112
0.042960476 0.043678634 1.0002333 142 150 148
0.043008439 0.045932956 1.0013502 142 145 138
0.04309649 0.048237067 1.0033997 129 137 139
0.043169502 0.050532617 1.0051001 105 98 93
0.04321675 0.052804165 1.0062001 112 108 101
0.04326614 0.055083293 1.0073501 92 103 104
0.043315537 0.057367485 1.0084999 79 86 85
0.043392848 0.059695143 1.0103004 73 73 77
0.04343795 0.061984777 1.01135 40 31 30
0.043480899 0.064275861 1.0123498 41 37 34
0.043517403 0.06656149 1.0132002 68 60 56
0.043575384 0.068884805 1.0145501 65 57 51
0.043667726 0.071270168 1.0167 56 51 39
0.04373645 0.073625207 1.0182999 119 113 96
0.043777242 0.075938873 1.0192502 132 130 113
0.043882482 0.078371808 1.0217001 112 119 111
0.04407756 0.080980591 1.0262419 106 113 109
0.044123594 0.083327904 1.0273135 104 102 98
0.044272937 0.085880369 1.0307909 134 130 123
0.044493571 0.088590078 1.0359275 147 148 136
0.044599753 0.091088638 1.0384002 142 148 143
0.044757444 0.093705952 1.0420716 109 110 96
0.044860188 0.096221596 1.0444636 119 117 104
0.0449454 0.098709248 1.0464476 142 146 140
0.046472885 -0.19535394 1.0292304 203 209 189
0.046399787 -0.19278328 1.0276115 181 187 161
0.046430446 -0.19064575 1.0282909 188 193 171
0.046421599 -0.18834491 1.0280945 200 200 183
0.046150427 -0.18499348 1.022089 200 200 185
0.046038922 -0.18230072 1.0196196 199 201 186
0.045913 -0.17956243 1.0168307 188 189 179
0.045822818 -0.17697449 1.0148331 160 161 151
0.045744423 -0.17444029 1.0130972 146 145 132
0.0456407 -0.17181836 1.0108001 145 139 123
0.045550399 -0.16925642 1.0087999 142 136 118
0.045480408 -0.1667778 1.0072498 147 141 118
0.045414932 -0.16432235 1.0057999 147 143 125
0.045367517 -0.16193774 1.0047501 147 144 124
0.045324631 -0.15957369 1.0038 117 109 87
0.045283992 -0.15722166 1.0029 89 72 50
0.045243353 -0.15487356 1.0019999 122 110 82
0.045238838 -0.15265134 1.0019 130 115 90
0.045218509 -0.15037701 1.0014501 131 116 96
0.045184653 -0.14806025 1.0006999 131 115 86
0.045171104 -0.14581242 1.0004001 138 127 93
0.045150783 -0.14354433 0.99994993 159 152 122
0.04508983 -0.14115104 0.99860001 165 165 137
0.045048561 -0.13882436 0.99768621 162 166 142
0.044859469 -0.13605335 0.99349815 157 161 137
0.044760723 -0.1335704 0.99131119 156 161 136
0.044681523 -0.13115449 0.98955727 157 160 135
0.044587016 -0.12870213 0.98746431 155 157 134
0.044544768 -0.12640728 0.98652858 153 154 132
0.044453181 -0.12397888 0.98450005 146 144 123
0.044385444 -0.12162484 0.9830001 154 152 131
0.044335779 -0.11932602 0.98190022 174 172 153
0.044245478 -0.11692464 0.97990006 189 194 176
0.044207089 -0.1146668 0.97905004 165 171 160
0.044150647 -0.11236668 0.97780001 149 157 140
0.044119041 -0.1101341 0.97710001 136 141 124
0.044105489 -0.10794878 0.97680008 132 136 121
0.044060342 -0.10568899 0.97580004 137 140 137
0.044064853 -0.10355033 0.97590017 116 121 116
0.044080663 -0.10143717 0.97625017 106 110 104
0.044035509 -0.099185191 0.97525012 94 93 96
0.044035517 -0.097037151 0.97525012 82 77 69
0.043981314 -0.094772294 0.97405016 99 94 88
0.043940686 -0.092541277 0.97314996 86 84 75
0.043945201 -0.090407133 0.97325003 78 73 56
0.043922625 -0.088218115 0.97275001 67 58 51
0.043893278 -0.086018033 0.97210008 58 50 45
0.04386393 -0.083820812 0.97145003 96 84 72
0.043814261 -0.081588618 0.97035009 98 88 71
0.043814264 -0.079451337 0.97035009 97 86 66
0.043793943 -0.077278197 0.96990013 96 84 64
0.04380523 -0.075161286 0.97015011 96 81 67
0.043812003 -0.073035732 0.97030002 101 88 72
0.043814264 -0.070902213 0.97035009 99 87 72
0.04383909 -0.068803906 0.97090006 100 89 72
0.043893278 -0.066747814 0.97210008 104 89 74
0.043936174 -0.064669833 0.97305 100 80 65
0.044024222 -0.062651865 0.97500008 109 94 77
0.044076145 -0.060575735 0.97615004 128 128 104
0.044146135 -0.058518451 0.97770005 130 136 122
0.044243213 -0.056488924 0.97984999 122 124 114
0.044301916 -0.054402806 0.98115003 97 97 90
0.044349328 -0.052297644 0.98220003 76 74 69
0.044396732 -0.050187856 0.98325002 57 47 39
0.044401247 -0.048027046 0.9833501 57 46 38
0.044453178 -0.045914769 0.98450005 57 47 37
0.044473492 -0.043766309 0.98494995 58 48 37
0.044500589 -0.041622218 0.98555005 59 49 36
0.044507358 -0.039457455 0.98570001 63 50 36
0.044520907 -0.037297715 0.98600006 73 61 47
0.044507354 -0.035115276 0.98570013 72 63 47
0.044496078 -0.032935828 0.98545009 74 64 48
0.044484787 -0.030757487 0.98520005 78 65 50
0.044446401 -0.028562833 0.98435003 80 71 52
0.044412535 -0.026374603 0.98359996 80 70 53
0.044430599 -0.024217987 0.98400003 80 70 52
0.044417053 -0.022043919 0.9837001 79 66 50
0.044439629 -0.019887339 0.98419988 87 72 58
0.044507351 -0.017746555 0.98570013 101 87 69
0.04453896 -0.015586522 0.98640013 104 88 72
0.044598471 -0.01343181 0.98771781 105 93 74
0.044648625 -0.011268934 0.98882878 105 97 79
0.044654109 -0.0090920683 0.98895007 102 95 79
0.044627015 -0.0069096251 0.98835003 102 93 76
0.04458411 -0.0047281487 0.98739994 104 95 78
0.044502839 -0.0025486592 0.98560011 106 99 78
0.044493817 -0.00037771225 0.98540008 94 87 69
0.044500593 0.0017929904 0.98555005 78 66 51
0.044455428 0.0039597293 0.98455012 81 68 59
0.044493817 0.0061335769 0.98540002 79 65 57
0.044482522 0.0083019007 0.98514998 75 59 54
0.044493809 0.010474438 0.98540002 63 51 53
0.04457283 0.012667323 0.98715001 59 47 48
0.044541229 0.014831084 0.98645002 71 55 50
0.044520903 0.016996067 0.98599994 75 62 56
0.044561539 0.019185316 0.98689997 76 64 58
0.044570576 0.021363379 0.98709995 57 51 47
0.044622492 0.023564976 0.98825014 58 48 45
0.044656362 0.025761217 0.98900002 81 70 65
0.044690225 0.027960762 0.98975009 96 82 75
0.044737633 0.03017275 0.99080008 101 90 82
0.044816654 0.032412224 0.99255002 99 87 80
0.044900194 0.034662884 0.99440002 99 88 79
0.044965662 0.036906876 0.99585021 99 90 79
0.045028877 0.03915529 0.9972502 121 121 107
0.045130465 0.041445125 0.99949998 133 133 126
0.045200452 0.043714296 1.0010499 142 147 144
0.045318611 0.046039231 1.0036666 143 144 138
0.045392357 0.048328415 1.0053 130 128 133
0.045455571 0.050613064 1.0067 114 113 106
0.045507498 0.052890755 1.0078502 128 125 115
0.045561686 0.055176247 1.0090501 117 125 124
0.045618121 0.057469875 1.0103002 113 117 111
0.045672297 0.059766047 1.0114999 78 78 82
0.04570391 0.062036864 1.0122001 0 0 0
0.04571972 0.064288579 1.0125501 0 0 0
0.045782931 0.066610746 1.0139499 43 35 34
0.045861956 0.068962887 1.0157 62 54 52
0.045965798 0.071361288 1.0179999 89 82 77
0.046015471 0.073683061 1.0191002 143 139 125
0.046069652 0.076017104 1.0202999 135 134 118
0.046192698 0.078473441 1.0230249 112 120 111
0.046374463 0.081044391 1.0270506 109 116 111
0.046425942 0.083399057 1.0281909 107 105 101
0.046595685 0.085976936 1.03195 134 131 124
0.046771787 0.088583417 1.0358499 145 145 135
0.046914339 0.091141902 1.0390072 138 144 137
0.047024641 0.093650088 1.04145 138 139 131
0.047139067 0.096177444 1.0439842 142 140 132
0.048315123 -0.19365159 1.0202615 204 212 190
0.048368607 -0.19161627 1.0213909 193 200 173
0.048545294 -0.19005828 1.0251219 202 206 184
0.048588172 -0.1879662 1.0260274 191 192 175
0.048220661 -0.18430166 1.0182668 193 193 179
0.04815542 -0.18181254 1.0168889 197 196 182
0.04802914 -0.17910184 1.0142223 185 189 181
0.047965728 -0.17663445 1.0128833 153 156 144
0.047891013 -0.1741318 1.0113053 145 145 130
0.047793671 -0.17155488 1.0092503 153 149 131
0.047698963 -0.16899636 1.0072501 154 152 133
0.047653973 -0.16662051 1.0063 140 142 127
0.047601886 -0.16422433 1.0052 133 130 115
0.047563996 -0.16188131 1.0044 126 118 106
0.047519006 -0.15951805 1.0034502 107 93 73
0.047488235 -0.157206 1.0028001 90 72 44
0.047447976 -0.15486585 1.0019497 131 125 95
0.047452711 -0.1526742 1.0020502 132 124 98
0.04743851 -0.15042202 1.0017501 130 120 97
0.047400624 -0.14809725 1.0009501 127 112 90
0.047395885 -0.14587799 1.0008502 143 134 101
0.047372211 -0.14360176 1.0003499 161 159 133
0.047315385 -0.14122877 0.99914998 163 164 140
0.047242276 -0.13881324 0.99760628 158 164 144
0.047068469 -0.1361133 0.99393606 155 158 139
0.046943672 -0.13356897 0.9913007 153 156 140
0.046871834 -0.13118453 0.98978376 155 157 141
0.046773572 -0.12873398 0.98770887 153 154 136
0.046697862 -0.12635361 0.98611009 150 152 131
0.046614043 -0.12395873 0.98434001 147 146 123
0.046567164 -0.12166815 0.9833501 144 141 120
0.046517439 -0.11937463 0.98230016 164 162 144
0.046415627 -0.11695447 0.98014992 192 196 179
0.04638011 -0.11470778 0.97940004 178 185 172
0.046320911 -0.11240689 0.97815007 160 169 151
0.046287764 -0.11017356 0.97745001 133 138 121
0.046252243 -0.10793774 0.97670001 114 118 104
0.046216734 -0.10570524 0.97595006 135 137 134
0.04620726 -0.10353442 0.97575015 114 119 114
0.046219099 -0.10141121 0.97600013 93 94 88
0.046202533 -0.099225894 0.97565001 84 83 85
0.046188314 -0.097047091 0.97535008 81 76 69
0.046122022 -0.094762579 0.97395009 120 114 107
0.046091236 -0.092555545 0.9733001 116 113 100
0.046067558 -0.090365328 0.97279996 105 98 82
0.046034411 -0.088159159 0.97210008 79 72 65
0.045998894 -0.085951671 0.97135007 68 61 56
0.045956273 -0.08373452 0.9704501 75 64 54
0.04590182 -0.081500329 0.96930015 95 85 69
0.045901816 -0.07936538 0.96930009 104 94 74
0.045882877 -0.077198535 0.96890002 102 89 70
0.045906547 -0.075103171 0.96940005 103 89 70
0.045904186 -0.072964229 0.96935004 100 87 71
0.045908917 -0.07083644 0.96945 101 89 72
0.045958646 -0.068775572 0.97050011 103 89 74
0.046029668 -0.066740952 0.972 107 91 77
0.046077028 -0.064666495 0.97300005 103 83 67
0.04616937 -0.062648654 0.97495013 108 96 76
0.046233304 -0.060585041 0.97630006 133 132 110
0.046306696 -0.058527429 0.97785008 132 137 121
0.046396684 -0.056483161 0.97974986 116 117 108
0.046446405 -0.054383397 0.98080015 89 91 84
0.046486653 -0.052268356 0.98165017 73 71 67
0.046522178 -0.050144471 0.98240006 53 45 37
0.04654111 -0.048000176 0.98279989 53 43 34
0.046581369 -0.045875128 0.98365009 55 44 35
0.046619251 -0.043744095 0.98444998 57 47 35
0.046635825 -0.041590534 0.98480004 58 46 36
0.046638191 -0.039423425 0.98484993 57 45 31
0.046638198 -0.037254207 0.98485005 78 66 52
0.04662399 -0.035074305 0.98455 76 68 51
0.046605047 -0.03289238 0.98414993 77 67 51
0.046586104 -0.030712221 0.98375005 79 67 52
0.046562418 -0.028530914 0.98325002 79 69 51
0.046545856 -0.026355833 0.98290002 79 69 52
0.046560053 -0.024198296 0.98320007 79 68 52
0.046548225 -0.022027109 0.98295009 69 53 38
0.046602678 -0.019885318 0.98409998 76 61 46
0.046678446 -0.017746555 0.98570013 96 80 63
0.046749476 -0.015599161 0.98719996 101 85 68
0.046811048 -0.013442449 0.98850012 104 92 75
0.046856023 -0.011276016 0.98945016 106 96 78
0.04682051 -0.0090897689 0.98870009 102 94 78
0.046811048 -0.0069106752 0.9885 103 93 77
0.046756588 -0.0047279093 0.98734999 111 101 84
0.04667845 -0.0025489177 0.98570013 120 113 92
0.046664245 -0.00037771228 0.9853999 100 93 74
0.046652399 0.0017922625 0.98514998 81 68 54
0.046623986 0.0039597284 0.98455 78 66 58
0.046668977 0.0061341999 0.98550004 80 65 58
0.04665003 0.0083014788 0.98510009 82 66 60
0.046678446 0.010477627 0.98570001 66 55 56
0.04675895 0.01267053 0.98740017 58 44 47
0.046732903 0.014837098 0.98685014 71 56 51
0.046711598 0.017002963 0.98639995 74 59 54
0.046725802 0.019181427 0.98669994 73 62 56
0.046728171 0.021355804 0.98674995 57 49 46
0.046784993 0.023557821 0.98795003 58 49 46
0.046803933 0.025744285 0.98835021 75 66 60
0.046837084 0.027940989 0.98905009 88 75 68
0.046898641 0.030159045 0.99035007 98 86 79
0.046983894 0.032399159 0.99215013 99 86 80
0.047099914 0.034669861 0.99460012 100 89 80
0.047196992 0.036936529 0.9966501 104 94 83
0.047279857 0.039200447 0.99840003 141 140 130
0.047412463 0.041515615 1.0012001 147 152 145
0.047497697 0.043799449 1.003 139 143 138
0.047564004 0.046072867 1.0044 134 134 129
0.047658704 0.048381291 1.0063999 118 117 112
0.047715537 0.050658315 1.0076001 121 123 113
0.047741573 0.052906495 1.0081502 130 132 122
0.04779131 0.055184446 1.0091999 123 126 125
0.047833927 0.057458498 1.0101001 117 116 116
0.04786944 0.059727646 1.0108502 84 86 84
0.047921527 0.062021546 1.0119501 0 0 0
0.047968891 0.064313963 1.0129502 0 0 0
0.048039924 0.066643603 1.0144501 25 16 18
0.048132263 0.069010414 1.0164 37 29 19
0.048255391 0.071431383 1.0190003 80 67 61
0.048314981 0.073766813 1.0202584 141 137 134
0.048382461 0.076120183 1.0216835 128 128 124
0.048500847 0.078562289 1.0241835 107 108 104
0.048677392 0.081112325 1.0279114 105 109 104
0.048736054 0.083476856 1.0291502 102 103 95
0.048827205 0.085904025 1.031075 136 132 122
0.049072932 0.088618807 1.0362639 144 142 132
0.049209874 0.091154926 1.0391556 138 142 134
0.049315941 0.093645185 1.0413952 136 138 129
0.050488282 -0.19336796 1.0187672 209 214 196
0.050411604 -0.19083376 1.0172199 205 210 186
0.050470382 -0.18881316 1.018406 204 211 196
0.050475392 -0.18658854 1.0185072 192 187 175
0.050272793 -0.18360524 1.014419 190 190 178
0.050269522 -0.18135913 1.014353 195 193 182
0.050122637 -0.17860149 1.0113888 185 190 177
0.050098401 -0.17628857 1.0108999 171 180 165
0.05001663 -0.17377785 1.0092503 179 182 171
0.049932387 -0.1712659 1.00755 181 182 173
0.049853094 -0.16877824 1.0059501 170 174 162
0.049808495 -0.16641358 1.0050501 138 143 134
0.049788672 -0.16413449 1.0046502 109 107 91
0.049746543 -0.16178462 1.0037998 94 84 69
0.049721763 -0.15949422 1.0033001 94 79 52
0.049714327 -0.15726086 1.0031499 104 89 58
0.049664777 -0.15489675 1.0021498 135 129 101
0.049667247 -0.15269704 1.0021999 131 126 101
0.049665101 -0.15048307 1.0021567 129 123 100
0.049634039 -0.14818302 1.0015299 119 109 82
0.049590431 -0.14584883 1.00065 145 136 106
0.049575564 -0.14360176 1.0003499 165 164 140
0.049513996 -0.14122277 0.99910772 162 165 142
0.04943699 -0.13880599 0.99755383 157 162 141
0.049230203 -0.13603733 0.99338138 151 154 135
0.049125709 -0.13356522 0.99127281 149 152 136
0.048997279 -0.13103838 0.98868114 153 153 137
0.048966989 -0.1287811 0.98807013 150 151 134
0.048896618 -0.12642281 0.98664999 149 150 131
0.048815839 -0.12404437 0.98501986 149 149 129
0.048755378 -0.12172382 0.98379993 143 143 125
0.048723161 -0.11947791 0.98315001 147 146 129
0.04862652 -0.11707976 0.98120022 175 182 170
0.048557151 -0.11475462 0.97980005 186 197 189
0.048497673 -0.11245861 0.97860003 169 186 179
0.048420861 -0.11012846 0.97705001 148 159 154
0.04838369 -0.10789354 0.97630006 130 142 139
0.048339084 -0.10564568 0.97540009 138 148 150
0.048329175 -0.10347606 0.9752 127 136 132
0.048334137 -0.10133848 0.97530001 109 115 117
0.048319265 -0.099159777 0.97500002 86 87 80
0.048304401 -0.096982412 0.97470015 90 86 73
0.04826723 -0.094762586 0.97395009 122 117 106
0.048227578 -0.092541292 0.97315013 124 119 108
0.048212714 -0.090369962 0.97284997 115 110 93
0.048168115 -0.088145562 0.97195005 89 81 64
0.048116073 -0.085911833 0.97089994 89 82 73
0.048064042 -0.083682753 0.96984994 59 52 35
0.048012014 -0.081458285 0.96880007 78 72 53
0.048014484 -0.07932853 0.96885014 97 89 70
0.047994666 -0.077162676 0.96845007 105 93 73
0.048024394 -0.075076051 0.96905011 105 93 72
0.048014484 -0.072926588 0.96885014 100 90 70
0.048029352 -0.070814528 0.96914995 102 90 72
0.048093773 -0.068772033 0.9704501 103 91 73
0.048170596 -0.066740945 0.972 105 94 74
0.048212714 -0.064656541 0.97285002 101 87 66
0.048309356 -0.06263902 0.97479999 107 95 71
0.048363872 -0.060560219 0.97589999 135 131 111
0.04843821 -0.058500499 0.9774 129 128 117
0.048529886 -0.056454338 0.97924995 105 102 98
0.048572008 -0.054344587 0.98010004 84 82 77
0.048641399 -0.052260369 0.98150015 72 70 66
0.048673611 -0.050131708 0.98215008 46 36 30
0.048700862 -0.047995299 0.98270005 50 38 32
0.048742987 -0.045870457 0.98355007 57 44 37
0.048780158 -0.04373743 0.98429996 59 47 36
0.048782635 -0.041571535 0.98435003 59 48 37
0.048797503 -0.039415427 0.98465002 58 44 35
0.048772719 -0.037227739 0.98415005 60 49 38
0.048767768 -0.035056505 0.98404998 73 64 51
0.048735552 -0.03286732 0.98339999 78 70 54
0.048728123 -0.03069661 0.98325002 79 71 55
0.048708294 -0.028519306 0.98284996 76 67 50
0.048705816 -0.026353151 0.98280001 78 65 52
0.048730604 -0.024200758 0.98330003 74 63 49
0.048735548 -0.022037197 0.98339999 55 40 29
0.0487752 -0.019887337 0.9842 50 34 23
0.048844587 -0.017744754 0.98560011 53 33 16
0.04889166 -0.015588893 0.98655003 59 40 22
0.048931308 -0.013426808 0.98734999 78 63 45
0.048968483 -0.011260631 0.98810017 107 97 81
0.048931312 -0.0090773571 0.98735011 103 93 80
0.048921399 -0.0069012358 0.98715007 94 84 73
0.048876796 -0.0047226427 0.9862501 100 89 76
0.048812371 -0.0025469784 0.98495018 114 106 91
0.048799984 -0.00037744403 0.9846999 116 108 87
0.048775204 0.0017905345 0.9842 92 82 66
0.048772722 0.00395812 0.98415005 80 69 55
0.048819803 0.0061317096 0.98510009 81 69 57
0.04879998 0.0082981093 0.98470008 80 70 58
0.048829712 0.010473372 0.98530006 66 56 49
0.048906527 0.012663472 0.98685014 63 54 47
0.048896618 0.014834089 0.98665011 85 73 60
0.048896618 0.017007273 0.98664999 88 77 68
0.048881751 0.019174624 0.98634988 85 74 64
0.048889183 0.021350397 0.98649991 79 73 64
0.048943698 0.023549473 0.98760003 80 71 62
0.048968486 0.025737774 0.98810017 78 67 56
0.048993263 0.027928274 0.98860013 84 72 65
0.049042813 0.030136203 0.98960006 90 78 71
0.049129546 0.032373037 0.99135017 101 92 83
0.049256422 0.034645803 0.99391001 103 93 84
0.049365602 0.036916636 0.99611342 107 97 86
0.049456634 0.039182782 0.99794996 142 141 132
0.049592916 0.041494872 1.0006999 148 152 146
0.049704421 0.043797266 1.00295 137 141 137
0.049801055 0.046095796 1.0049002 129 130 124
0.04989522 0.048400521 1.0068001 114 111 108
0.049952209 0.050675906 1.0079501 129 129 121
0.050001763 0.052948475 1.0089501 133 133 126
0.050073631 0.055250071 1.0103999 121 124 123
0.050115746 0.057523906 1.0112501 112 113 111
0.050157882 0.0598015 1.0121001 97 97 98
0.050217599 0.062104594 1.0133049 28 20 15
0.050280534 0.064417124 1.0145748 15 5 3
0.050351154 0.066745423 1.016 0 0 0
0.050460178 0.069132626 1.0182 33 20 3
0.05054938 0.071501486 1.0200002 80 62 48
0.05059316 0.073811993 1.0208832 102 94 95
0.050679266 0.076190025 1.0226209 97 93 98
0.050803374 0.07863453 1.0251251 112 109 112
0.050930224 0.081094436 1.0276847 110 110 106
0.051009458 0.08348766 1.0292833 100 104 97
0.051194251 0.086065441 1.0330122 132 127 122
0.051362135 0.088630453 1.0364001 142 138 134
0.051528163 0.09120708 1.0397499 137 141 135
0.051625252 0.093673363 1.0417092 137 138 131
0.051778711 0.096253112 1.0448058 138 138 132
0.052365098 -0.19202177 1.0116746 212 219 203
0.052514385 -0.19033451 1.0145589 209 215 193
0.052591506 -0.18837613 1.0160486 203 208 194
0.052561406 -0.18603164 1.0154672 187 188 172
0.052499469 -0.1835784 1.0142707 190 189 175
0.052399412 -0.18099876 1.0123373 190 190 179
0.052267522 -0.17831904 1.0097895 188 193 179
0.052234422 -0.17598338 1.00915 187 196 180
0.052154191 -0.17349376 1.0075999 197 200 188
0.052102435 -0.17110443 1.0066001 181 185 175
0.052027375 -0.16864404 1.0051501 164 169 158
0.052006669 -0.16636388 1.0047499 131 136 126
0.052001495 -0.16413447 1.0046502 105 101 87
0.051962681 -0.16180074 1.0038999 98 85 56
0.051952325 -0.15955779 1.0036998 109 94 64
0.051949732 -0.15733925 1.0036501 120 107 74
0.051890206 -0.15495084 1.0025002 132 129 99
0.051885039 -0.15272751 1.0024 130 126 100
0.05185657 -0.15043703 1.00185 126 123 99
0.051823787 -0.14813669 1.0012168 120 109 81
0.051822089 -0.14592664 1.0011841 160 151 122
0.051764239 -0.14356101 1.000066 166 170 150
0.051705264 -0.14119723 0.99892694 160 164 145
0.051613487 -0.13875028 0.99715376 149 153 147
0.051448055 -0.1361163 0.9939577 131 129 118
0.051350784 -0.13367377 0.99207848 140 136 129
0.051213253 -0.13113651 0.98942155 152 145 138
0.051106773 -0.1286891 0.98736441 153 150 136
0.051046323 -0.12636468 0.98619664 150 148 132
0.050993718 -0.12406449 0.98518002 149 148 127
0.050919693 -0.12171763 0.98375005 145 146 129
0.050864317 -0.11942081 0.98268014 144 146 130
0.050790291 -0.11708573 0.98125017 136 147 140
0.050715238 -0.11475463 0.97980005 111 134 141
0.050642777 -0.11243562 0.97840005 73 93 110
0.050583255 -0.11015101 0.9772501 70 91 109
0.050557368 -0.10794326 0.97675008 81 104 115
0.050527446 -0.10572928 0.97617197 114 128 139
0.050519675 -0.10356325 0.97602189 121 138 149
0.050539255 -0.10145277 0.97640008 135 142 148
0.050515961 -0.099256396 0.97595006 120 127 121
0.050523728 -0.097121701 0.97610015 107 116 102
0.050487496 -0.094903655 0.97539997 112 110 94
0.050409846 -0.092612602 0.97390014 117 111 97
0.050389148 -0.090430349 0.97350007 112 110 96
0.0503322 -0.088186361 0.97240001 97 90 67
0.050251979 -0.085907415 0.97084999 111 103 90
0.050187282 -0.083661184 0.96960002 98 89 69
0.050138105 -0.081445672 0.96865016 77 69 53
0.050138105 -0.079312138 0.96865016 92 85 65
0.050119989 -0.077150717 0.96830004 111 100 79
0.050148457 -0.075060554 0.96885014 107 98 76
0.050143283 -0.072919071 0.96875012 103 95 75
0.050145864 -0.07078895 0.96880007 104 94 75
0.0502261 -0.068764925 0.97035009 103 94 74
0.050272685 -0.066689469 0.97125018 110 100 76
0.050308913 -0.06459672 0.97195005 109 100 76
0.050394326 -0.062561937 0.97360009 117 106 78
0.050453853 -0.060488857 0.97474992 131 123 109
0.050557368 -0.058461595 0.97675008 122 116 103
0.050666071 -0.056431275 0.97885007 96 91 83
0.050715245 -0.054327954 0.97980005 81 76 69
0.05080064 -0.052257709 0.9814502 72 65 59
0.050831698 -0.050126601 0.98205012 52 39 31
0.050870515 -0.048000179 0.98280013 56 43 35
0.050917108 -0.045877457 0.9837001 59 48 35
0.05092746 -0.043719657 0.98390007 60 49 36
0.05092746 -0.041552529 0.98389995 59 48 35
0.050922275 -0.039381403 0.98379993 56 42 35
0.050904166 -0.037201252 0.98345006 57 44 37
0.050888635 -0.035024431 0.98315012 69 56 46
0.050857581 -0.032838903 0.98255014 75 62 51
0.050849814 -0.030670071 0.98240012 77 65 56
0.05084464 -0.028503347 0.9823001 75 62 53
0.050842047 -0.026338398 0.98225009 77 62 54
0.050857581 -0.024182299 0.98255002 64 54 45
0.050880872 -0.022028232 0.98299998 55 43 32
0.050914519 -0.019876225 0.98365003 51 35 26
0.050976627 -0.017731253 0.98485005 59 40 27
0.051012866 -0.015573094 0.98555011 69 48 32
0.051033575 -0.013407771 0.98595011 85 65 49
0.05106204 -0.011242396 0.98649991 98 87 66
0.051046509 -0.0090667857 0.98619998 94 81 67
0.051025808 -0.0068917982 0.98579997 89 74 65
0.050981812 -0.0047164173 0.98494995 92 77 67
0.05093522 -0.0025446513 0.9840501 104 91 81
0.05092746 -0.0003771373 0.98390007 126 114 102
0.050919689 0.0017897158 0.98375005 99 90 78
0.05093522 0.0039577172 0.98404998 81 73 56
0.050968867 0.0061292201 0.98470008 80 72 54
0.050958522 0.0082964245 0.98450011 79 71 53
0.050997339 0.010472842 0.98525012 76 68 53
0.051054277 0.012657056 0.98635006 77 70 54
0.051064622 0.014832586 0.98655003 91 80 67
0.051074974 0.017008996 0.98675001 94 81 70
0.051064622 0.019178512 0.98655003 92 81 70
0.051074974 0.021355804 0.98675001 93 81 73
0.051153917 0.02356557 0.98827517 92 81 70
0.051157795 0.025744285 0.98835003 92 82 69
0.051175915 0.0279311 0.98870009 98 89 77
0.051199205 0.030122498 0.98915017 101 96 84
0.05127167 0.032346908 0.99055004 109 104 97
0.051385544 0.034605376 0.99274999 109 101 95
0.051502008 0.036875371 0.99500006 109 101 94
0.051655214 0.039183177 0.99796009 146 143 134
0.051797044 0.041494891 1.0007002 148 154 147
0.051936794 0.043816913 1.0034 141 147 139
0.052046858 0.046124525 1.0055263 137 142 133
0.052123141 0.04841014 1.0070001 129 133 123
0.052182663 0.050685953 1.0081501 126 128 118
0.052239589 0.052964222 1.0092499 127 128 118
0.052304298 0.055255532 1.0105002 105 101 99
0.052356064 0.057538141 1.0115001 104 95 93
0.052384533 0.059798546 1.0120502 107 99 95
0.052449487 0.062104601 1.0133049 77 69 62
0.05251237 0.064413637 1.01452 33 23 19
0.052622627 0.066788122 1.0166501 8 4 5
0.052767556 0.069217511 1.0194499 59 48 29
0.052873887 0.071606927 1.0215043 112 95 82
0.052906234 0.073902063 1.0221292 69 60 63
0.052985817 0.076267943 1.0236669 70 67 73
0.053093642 0.078682475 1.0257502 113 108 113
0.053208817 0.081117347 1.0279748 115 114 111
0.053295523 0.083517402 1.02965 106 107 103
0.053439159 0.086016521 1.032425 127 121 116
0.053608675 0.088570595 1.0357001 131 124 126
0.053789835 0.091158822 1.0391999 135 134 134
0.05389335 0.093627602 1.0411999 136 136 132
0.05398792 -0.18989211 1.0004545 215 223 210
0.054463714 -0.18934262 1.0092713 212 220 199
0.054550096 -0.1874164 1.0108724 201 208 194
0.054610532 -0.18539497 1.0119921 188 189 174
0.054638676 -0.1832604 1.0125138 180 185 170
0.054633074 -0.18101174 1.0124099 175 174 165
0.054492056 -0.17832032 1.0097969 189 193 176
0.054446362 -0.1759485 1.00895 186 199 181
0.05436812 -0.17347652 1.0075001 170 174 166
0.054303367 -0.17105342 1.0063 154 159 153
0.054227371 -0.16860071 1.0048916 150 154 147
0.054217029 -0.16635557 1.0046999 127 126 116
0.05422781 -0.16417532 1.0049 101 95 75
0.05420623 -0.16189745 1.0044999 109 97 71
0.054195441 -0.15965317 1.0043001 122 112 88
0.054186679 -0.15741567 1.0041374 123 118 93
0.054176558 -0.15517496 1.0039501 138 130 113
0.05415497 -0.15290272 1.0035499 135 131 111
0.054106396 -0.15055718 1.0026503 130 125 100
0.054022748 -0.14811942 1.0011001 123 112 81
0.054021306 -0.14591049 1.0010731 165 161 135
0.053948678 -0.14351237 0.99972737 161 172 157
0.053907562 -0.14120267 0.99896556 147 158 147
0.053808145 -0.13874605 0.99712312 122 131 133
0.053648122 -0.13614368 0.99415779 92 85 82
0.053599965 -0.13383372 0.99326551 105 96 95
0.053407334 -0.13117282 0.98969567 117 108 103
0.05329483 -0.12872119 0.9876107 143 137 129
0.053197123 -0.12631389 0.98579997 148 141 131
0.053162623 -0.12406208 0.98516083 146 141 124
0.053099979 -0.12174857 0.98400003 139 138 124
0.053048719 -0.11946578 0.98305005 141 140 126
0.052967776 -0.11712153 0.98155004 120 133 126
0.052886821 -0.11478391 0.98004991 55 77 86
0.052830167 -0.11250458 0.97900009 0 17 36
0.052784294 -0.11025246 0.97815001 5 27 43
0.052751917 -0.10803168 0.97754991 18 41 54
0.052740116 -0.10585485 0.97733134 64 77 88
0.052714817 -0.10365244 0.97686261 81 98 108
0.052735724 -0.10154108 0.9772501 111 120 127
0.052752815 -0.099420816 0.97756684 127 135 129
0.052722238 -0.097211264 0.97700006 120 127 114
0.052673675 -0.094971761 0.97610015 112 107 93
0.052611612 -0.092712454 0.97495002 129 121 109
0.052581936 -0.09051396 0.97440016 129 124 112
0.0524875 -0.088209048 0.97265005 110 108 83
0.052390367 -0.085907407 0.97084999 106 98 83
0.052339096 -0.083687074 0.96989995 116 108 86
0.052279733 -0.081458271 0.96880019 107 101 79
0.05227704 -0.079320326 0.96875012 107 100 76
0.052263547 -0.077166662 0.96850002 110 101 79
0.052293222 -0.075076051 0.96905011 109 100 78
0.052298624 -0.072949171 0.96914995 105 101 78
0.052304022 -0.070821837 0.96925002 105 101 79
0.052363377 -0.068764925 0.97034997 105 100 76
0.052425437 -0.06670662 0.97150004 111 101 79
0.052465908 -0.064616658 0.9722501 117 106 83
0.052536063 -0.062558718 0.97355014 120 110 82
0.052619707 -0.060510583 0.97509992 120 113 97
0.052727632 -0.058482539 0.97710007 112 105 93
0.05283286 -0.056442808 0.97904986 86 79 73
0.052897621 -0.054352902 0.98025018 75 69 63
0.052970469 -0.052265693 0.98160011 64 59 53
0.053002845 -0.050134253 0.98220015 57 44 37
0.053027131 -0.047992855 0.9826501 59 46 36
0.053062208 -0.0458588 0.98330003 61 49 37
0.053073 -0.04370188 0.9835 61 51 37
0.053064901 -0.041529302 0.98334998 59 49 36
0.053051412 -0.039353374 0.98310012 57 44 36
0.053043325 -0.037182339 0.98295003 57 44 36
0.05302443 -0.035004839 0.98260003 62 51 41
0.053002845 -0.03282721 0.98220015 68 56 44
0.052983969 -0.030652901 0.98185015 70 58 48
0.052983958 -0.028490294 0.98185015 70 56 48
0.053000152 -0.026335722 0.98215008 73 57 49
0.053021736 -0.024182299 0.98255002 61 53 43
0.053054113 -0.022031594 0.98314989 57 43 33
0.053086482 -0.019878246 0.98375005 54 37 29
0.053148545 -0.017732153 0.9849 63 45 32
0.053180926 -0.0155723 0.98550004 78 58 41
0.053186327 -0.013403011 0.98560017 88 69 53
0.053194415 -0.011233849 0.98575002 93 81 59
0.053199816 -0.0090635689 0.98585004 82 69 56
0.053172834 -0.0068886532 0.98535001 79 65 56
0.053118873 -0.0047135442 0.98435003 84 67 58
0.053072996 -0.0025432291 0.9835 92 78 68
0.053048711 -0.00037681148 0.98305005 123 113 100
0.053062201 0.0017888971 0.98329991 103 95 84
0.053078394 0.0039559072 0.98360002 87 78 60
0.053105384 0.0061254846 0.98409998 84 76 56
0.053097285 0.0082917893 0.98394996 82 74 56
0.053140454 0.010467527 0.98475009 84 76 60
0.053213306 0.012653848 0.98610008 86 78 63
0.053213309 0.014825823 0.98610008 93 84 70
0.053253777 0.017010719 0.98685008 94 82 71
0.053237595 0.019178512 0.98654997 93 81 70
0.05325108 0.021356886 0.98680001 95 84 74
0.053321235 0.023561396 0.98810017 95 84 74
0.05334552 0.025749495 0.98855001 100 89 78
0.05334552 0.027926862 0.98855007 107 99 86
0.053369798 0.030117933 0.98900002 116 110 99
0.053423762 0.032328952 0.98999995 114 110 105
0.053537082 0.034582715 0.99209994 110 103 99
0.053692497 0.036874633 0.99498004 106 94 92
0.053874891 0.039198883 0.99836016 142 140 129
0.053997435 0.041492011 1.0006309 145 151 143
0.054150846 0.043820132 1.0034736 144 151 143
0.054238897 0.046105217 1.0051055 143 148 142
0.054321259 0.048392422 1.0066315 134 138 134
0.054373514 0.050658308 1.0076001 109 106 98
0.05443557 0.052937977 1.0087501 116 111 101
0.054543503 0.055269204 1.0107502 95 87 80
0.054610949 0.057566572 1.012 83 69 64
0.054675706 0.059866495 1.0132002 94 80 73
0.05475666 0.062190097 1.0146999 78 67 66
0.054826133 0.064506814 1.0159876 40 24 24
0.054980606 0.066932663 1.0188502 28 20 19
0.055099327 0.069326125 1.02105 89 80 59
0.055206131 0.07171382 1.0230293 118 107 95
0.055248391 0.074023768 1.0238129 59 53 49
0.055321921 0.07638032 1.0251752 69 68 65
0.055420406 0.078778364 1.0270001 89 85 93
0.055531938 0.081203483 1.0290664 86 82 84
0.055598687 0.083570443 1.0303038 85 87 88
0.055768471 0.086101912 1.0334501 118 111 111
0.055933602 0.088639848 1.0365101 121 115 116
0.05610574 0.091202691 1.0397 135 134 132
0.056192089 0.093636595 1.0412998 136 137 133
0.054938048 -0.18781064 0.97813755 178 175 167
0.05534796 -0.18704142 0.98543537 217 220 206
0.056471273 -0.18862297 1.0054355 217 219 208
0.056717679 -0.1872218 1.0098225 210 213 197
0.056808472 -0.18529366 1.0114391 199 204 188
0.056820758 -0.1831055 1.0116576 184 192 175
0.056864124 -0.18101531 1.01243 172 178 165
0.056739748 -0.17839435 1.0102155 188 193 176
0.056657445 -0.17591362 1.0087502 187 198 184
0.056561965 -0.17339905 1.00705 157 162 153
0.056477703 -0.17092595 1.0055501 134 138 126
0.056444 -0.16861048 1.0049498 127 127 109
0.056418728 -0.1663225 1.0044999 117 111 94
0.056429964 -0.16414265 1.0046999 111 109 91
0.056413107 -0.16188134 1.0044 97 89 73
0.05642435 -0.15970089 1.0046002 89 82 70
0.056427158 -0.15749601 1.00465 90 83 74
0.05639907 -0.15520588 1.0041497 110 95 91
0.056390651 -0.15297128 1.0040001 110 94 86
0.056312013 -0.15054967 1.0026002 109 86 70
0.056244612 -0.14816383 1.0014 135 119 89
0.056208111 -0.14586341 1.0007499 169 166 148
0.05612272 -0.14344092 0.99922973 156 166 153
0.056102045 -0.141188 0.99886161 118 131 121
0.055995107 -0.138723 0.99695766 84 94 97
0.055835836 -0.13613877 0.99412191 67 59 57
0.055797018 -0.13385597 0.99343079 71 63 62
0.055609297 -0.1312249 0.99008858 89 79 74
0.05547104 -0.12872332 0.98762703 134 129 119
0.055347569 -0.1262663 0.98542863 140 134 124
0.055283178 -0.12395145 0.9842822 140 133 117
0.055250484 -0.12171145 0.98369998 132 132 117
0.05519712 -0.11942933 0.98275006 132 133 118
0.055104446 -0.11706784 0.98110008 108 126 125
0.055031437 -0.11475462 0.97979993 23 50 69
0.0549528 -0.11243562 0.97840005 60 82 97
0.054910682 -0.1101961 0.97765005 83 105 117
0.05489558 -0.10801303 0.97738135 81 102 110
0.054854512 -0.10578106 0.97665006 19 33 35
0.054825552 -0.10357518 0.9761346 0 11 18
0.054843277 -0.10145795 0.97644997 17 22 26
0.054843277 -0.099307254 0.97645009 71 80 84
0.054860126 -0.097186387 0.97675008 99 107 114
0.054820817 -0.094966903 0.97605008 126 121 107
0.054767448 -0.092726722 0.97510016 150 138 128
0.054705668 -0.090476796 0.9740001 158 154 149
0.054632653 -0.088213585 0.9727 144 140 128
0.054531552 -0.085911825 0.97090006 112 107 86
0.054469775 -0.083678439 0.9698 112 104 82
0.054422032 -0.081470899 0.96895009 113 105 84
0.054427646 -0.079344898 0.96905011 113 103 83
0.054413605 -0.077190563 0.96879995 110 100 78
0.054447304 -0.075103171 0.96940005 108 100 78
0.054493226 -0.073029533 0.97021759 104 102 77
0.054501988 -0.070903912 0.97037351 104 102 78
0.054569714 -0.06885206 0.97157943 104 102 76
0.05459895 -0.066747822 0.97210008 107 99 76
0.054658093 -0.064676665 0.973153 120 109 89
0.054728139 -0.062613331 0.97440004 123 112 91
0.054795526 -0.060541607 0.97559994 104 97 78
0.054879785 -0.058482546 0.97710007 101 92 76
0.054986496 -0.056439925 0.97899991 69 59 50
0.055037044 -0.054333501 0.97990006 58 51 42
0.055098824 -0.052233756 0.98100007 58 49 41
0.055132531 -0.050103642 0.98160017 63 50 39
0.055169038 -0.047973324 0.98225009 62 51 39
0.055185895 -0.04582382 0.98255002 65 56 42
0.055205554 -0.043675222 0.98290002 68 56 43
0.055216778 -0.041518752 0.98310012 65 54 42
0.055228017 -0.039361384 0.98330009 59 48 41
0.055213969 -0.037186116 0.98305005 58 47 40
0.055188693 -0.035004839 0.98260009 61 48 41
0.05515499 -0.032820527 0.98200005 64 52 43
0.055166226 -0.030663829 0.98220015 64 53 45
0.05515781 -0.028496092 0.98204994 62 51 44
0.055174656 -0.026341084 0.98235017 64 48 43
0.055185884 -0.024182297 0.98255002 61 49 42
0.055202741 -0.022024874 0.98285007 60 49 38
0.055239249 -0.019873193 0.98350012 58 45 36
0.055298232 -0.017725851 0.98455 53 37 27
0.055306654 -0.015559661 0.98470008 59 39 26
0.055292606 -0.013387373 0.98444998 71 52 38
0.055303842 -0.011221312 0.98464996 101 86 62
0.055301029 -0.0090520773 0.98459995 88 76 61
0.055270143 -0.0068795634 0.98404998 83 67 56
0.055233635 -0.0047089946 0.98340005 81 64 54
0.055197127 -0.0025412899 0.98274994 78 62 53
0.055183075 -0.00037660063 0.98250008 87 72 67
0.055177469 0.0017872598 0.98240012 94 83 74
0.055191506 0.0039520869 0.9826501 91 84 68
0.055208355 0.0061183269 0.98295009 91 84 64
0.055191509 0.0082808323 0.9826501 94 87 66
0.055233635 0.010453178 0.98340005 100 90 72
0.055306643 0.012635882 0.98470002 95 86 69
0.05531507 0.014807026 0.98485011 96 83 73
0.055382472 0.016996931 0.98605001 95 82 72
0.055388086 0.019170735 0.98614997 95 81 71
0.055430211 0.021359051 0.98689997 99 84 74
0.055508845 0.023566168 0.9883002 96 82 73
0.055536926 0.025756007 0.98880005 107 95 83
0.055548161 0.027939577 0.98900002 121 111 98
0.055584837 0.030137822 0.98965323 126 122 110
0.055618368 0.032337122 0.99024999 113 111 103
0.055676322 0.034554202 0.99128199 110 101 96
0.05589471 0.036881674 0.99517 102 90 88
0.056100272 0.039217327 0.99883002 137 134 125
0.05622194 0.041507162 1.0009964 144 151 143
0.056402471 0.043852311 1.0042105 146 152 144
0.056502976 0.046146251 1.0059999 142 146 142
0.056565057 0.048415199 1.0071052 130 133 130
0.056620933 0.050683439 1.0080998 90 83 77
0.056679904 0.052958976 1.0091499 108 105 94
0.056806274 0.055304747 1.0114002 98 89 77
0.05689615 0.057623457 1.013 71 62 58
0.056955118 0.059916716 1.01405 67 55 47
0.05704499 0.062248327 1.0156499 54 41 43
0.057131689 0.064583406 1.0171937 32 11 15
0.057272464 0.066988513 1.0197001 59 48 45
0.057376366 0.069360092 1.0215499 116 107 86
0.057491977 0.071754418 1.0236084 118 116 103
0.057544857 0.0740771 1.0245501 99 104 91
0.057636596 0.076455437 1.0261834 119 121 112
0.057733484 0.078848019 1.0279084 97 92 103
0.057846285 0.081270561 1.0299166 67 58 62
0.057914913 0.083638154 1.0311387 62 57 61
0.05805381 0.086115375 1.0336115 100 89 93
0.05823626 0.088669784 1.03686 109 101 107
0.05834759 0.091127455 1.0388421 127 124 124
0.058412623 0.093519695 1.0400002 132 128 128
0.056644134 -0.18633573 0.97045624 135 129 118
0.057190195 -0.18597394 0.97981143 214 213 200
0.058428861 -0.18779705 1.0010329 214 214 200
0.058803417 -0.1867819 1.00745 209 213 197
0.058919352 -0.18492678 1.0094364 205 212 197
0.05897633 -0.18288007 1.0104125 198 207 192
0.058987975 -0.18069024 1.010612 193 200 189
0.058924012 -0.17827076 1.009516 191 194 177
0.058863603 -0.17586677 1.008481 187 197 184
0.058745045 -0.17329572 1.0064501 152 157 148
0.058648746 -0.17079847 1.0048001 127 131 120
0.058590371 -0.16841748 1.0038002 119 121 103
0.058564104 -0.16613203 1.0033501 121 115 98
0.058546595 -0.16387308 1.00305 121 117 99
0.058558274 -0.16169599 1.00325 73 65 48
0.058584534 -0.15955782 1.0036998 57 50 37
0.058596205 -0.15737845 1.0038998 55 47 39
0.058575779 -0.15511313 1.0035499 74 59 56
0.058596205 -0.15295604 1.0039002 78 62 54
0.058526158 -0.15056467 1.0027002 87 66 49
0.058429856 -0.14811207 1.0010502 134 119 89
0.058369018 -0.14575522 1.0000077 161 159 140
0.058265299 -0.14329752 0.99823093 153 162 151
0.058218617 -0.14098579 0.9974308 119 133 125
0.058150582 -0.13862666 0.99626541 82 98 102
0.057998002 -0.13607432 0.99365127 58 55 58
0.057935745 -0.13374197 0.99258459 55 44 41
0.057696939 -0.13101348 0.98849332 73 63 58
0.057631664 -0.1286905 0.9873749 133 126 118
0.057511382 -0.12625168 0.98531437 134 127 119
0.057431169 -0.12390836 0.98394001 131 126 112
0.057385057 -0.12164339 0.98315012 128 127 116
0.057315011 -0.11933209 0.98195016 125 132 119
0.057239138 -0.11701415 0.98065007 88 108 112
0.057172012 -0.1147195 0.9795 0 7 24
0.057119489 -0.11245861 0.97860003 66 79 83
0.05707863 -0.11022427 0.97790003 102 117 118
0.057072978 -0.10805967 0.97780311 116 127 123
0.057023905 -0.10581492 0.97696245 75 82 76
0.05701223 -0.10364185 0.97676265 53 64 58
0.057014424 -0.10149433 0.97680014 36 42 37
0.057023179 -0.099358097 0.97695005 22 35 43
0.057020254 -0.097201318 0.9769001 43 56 74
0.056988157 -0.094996087 0.97635013 121 120 117
0.056921028 -0.092736237 0.97520018 147 133 126
0.056903519 -0.090560392 0.97490007 148 137 132
0.056833483 -0.088304266 0.97370005 148 143 131
0.056705076 -0.08596494 0.97149992 146 143 120
0.05663795 -0.083725892 0.97034997 112 106 83
0.056588329 -0.081517145 0.96950018 112 106 84
0.056602925 -0.079402223 0.96975011 115 106 85
0.056591254 -0.077250332 0.96955013 111 99 80
0.056602933 -0.075130291 0.96975005 108 99 81
0.05663503 -0.073035732 0.97030002 106 100 81
0.056652535 -0.070920467 0.97060001 108 99 82
0.056719668 -0.068864152 0.97175014 108 99 80
0.056743003 -0.066751257 0.97215015 113 100 82
0.056757607 -0.064626619 0.97240007 116 99 84
0.056827646 -0.062561914 0.97360021 114 99 80
0.05690936 -0.060504369 0.97500002 109 103 78
0.05698232 -0.058431666 0.97625005 104 98 80
0.057081539 -0.056379396 0.97794998 64 55 41
0.057119481 -0.054261405 0.97859991 59 50 37
0.057195358 -0.052175187 0.97990006 60 50 40
0.057250805 -0.050065357 0.9808501 63 51 37
0.057297505 -0.04794402 0.98165017 64 51 40
0.057317924 -0.045798175 0.98200005 68 57 43
0.057344206 -0.043655224 0.98245001 67 57 44
0.057341285 -0.041489184 0.98240006 66 56 44
0.057306267 -0.039301343 0.98180008 61 49 44
0.057277076 -0.037119918 0.9813 59 47 44
0.057271242 -0.034954965 0.9812001 60 48 42
0.057244975 -0.032778747 0.98074996 62 51 43
0.057274163 -0.030634169 0.98125011 62 52 44
0.057300426 -0.028485939 0.98170006 65 54 45
0.057315014 -0.026330357 0.9819501 66 53 44
0.057367541 -0.024189677 0.98285007 67 56 44
0.05738797 -0.022032714 0.98319995 67 57 46
0.057423007 -0.019879257 0.98380011 60 49 40
0.057463855 -0.017724952 0.98450005 53 38 31
0.057446349 -0.015551758 0.9842 55 36 27
0.057434678 -0.013381253 0.98399991 63 44 32
0.057417165 -0.011210487 0.98369998 98 83 66
0.057390898 -0.0090396646 0.98325002 86 76 62
0.057367556 -0.0068711741 0.98284996 85 72 59
0.057326686 -0.0047030104 0.9821502 85 73 58
0.057326686 -0.0025397383 0.9821502 84 69 57
0.057317931 -0.00037640901 0.98200017 81 67 57
0.057320852 0.0017866232 0.98205012 86 75 65
0.057332523 0.0039504776 0.98225003 82 70 57
0.057358794 0.0061167716 0.98270005 74 59 44
0.057376303 0.0082837818 0.98299998 88 72 53
0.057414245 0.010455835 0.98365009 103 91 73
0.057463855 0.012633316 0.98450005 98 86 71
0.057478447 0.014805524 0.98475009 95 83 72
0.057557244 0.016997794 0.98610002 93 79 71
0.057565998 0.019172674 0.98625004 94 79 69
0.057612695 0.021362295 0.98705006 95 83 71
0.057709008 0.023575705 0.98870021 91 80 69
0.057726514 0.025761217 0.98900002 111 102 86
0.05774986 0.027950877 0.98940009 127 118 105
0.057808232 0.030160571 0.99040014 125 124 113
0.057863683 0.032373041 0.99135 110 113 103
0.058018357 0.034648947 0.99399996 107 101 97
0.05815319 0.036923923 0.99631006 101 95 87
0.058342885 0.039245997 0.99956006 143 141 130
0.05845321 0.041525982 1.0014501 146 153 145
0.058623552 0.043859195 1.0043683 127 131 126
0.058734141 0.046158325 1.0062631 115 116 116
0.058762562 0.048398122 1.00675 101 98 101
0.058815084 0.050660826 1.0076501 94 82 75
0.058876377 0.052935354 1.0087001 105 102 91
0.058984358 0.055258267 1.0105501 97 89 77
0.059077747 0.057575114 1.01215 69 59 55
0.059139043 0.059866499 1.0132 60 49 43
0.059223674 0.062187035 1.0146501 45 31 33
0.059313409 0.064519517 1.0161875 25 4 10
0.059442557 0.066903107 1.0184003 61 50 47
0.059533019 0.069251448 1.0199502 119 109 89
0.059670191 0.071662709 1.0223 130 126 113
0.059795193 0.074069254 1.0244418 124 130 116
0.059936486 0.076506041 1.0268625 133 134 127
0.060055912 0.078924723 1.0289085 86 80 91
0.060168266 0.081342898 1.0308335 84 69 72
0.060256302 0.083735749 1.0323417 86 73 69
0.06036073 0.086158618 1.0341309 68 57 56
0.060462248 0.088585123 1.03587 62 59 61
0.060571827 0.091031395 1.0377475 90 87 84
0.060612265 0.09337943 1.0384403 116 110 111
0.058686119 -0.18603295 0.96887892 104 99 88
0.059342396 -0.18595538 0.97971362 184 178 163
0.06026249 -0.18664722 0.99490392 210 207 196
0.060838602 -0.1862193 1.0044154 204 202 191
0.061099678 -0.18479662 1.0087258 205 209 195
0.061105102 -0.18259099 1.0088153 208 213 198
0.061157979 -0.18052508 1.0096881 204 214 202
0.061093427 -0.17811295 1.0086223 158 161 141
0.061036795 -0.17572835 1.0076876 170 169 156
0.060937606 -0.17322686 1.0060502 149 148 132
0.060852807 -0.17077295 1.0046504 142 140 116
0.060764987 -0.16831687 1.0031998 139 133 110
0.060683221 -0.16588369 1.0018501 133 128 113
0.060655963 -0.16360351 1.0014004 125 120 104
0.060658991 -0.16140589 1.0014502 60 56 44
0.060704418 -0.15931934 1.0022001 41 37 26
0.060686249 -0.1570649 1.0019001 33 26 17
0.060671102 -0.15481947 1.00165 44 27 21
0.06070441 -0.15269706 1.0021999 53 30 13
0.060683213 -0.15043704 1.00185 70 47 29
0.060610533 -0.14805284 1.00065 133 118 91
0.06052037 -0.14563188 0.99916154 148 149 130
0.060386889 -0.14311478 0.99695778 157 163 154
0.060375698 -0.1408928 0.99677306 142 154 154
0.060295563 -0.13851322 0.99545002 124 138 143
0.060177915 -0.13605464 0.99350768 67 65 69
0.060060631 -0.13360547 0.99157143 57 47 40
0.059945006 -0.13116845 0.98966265 79 71 63
0.059810989 -0.12870027 0.98745 134 129 127
0.05968985 -0.12626904 0.98544997 125 123 113
0.059536148 -0.12377898 0.98291254 126 125 111
0.059461199 -0.1214609 0.98167503 126 123 113
0.059423346 -0.11922272 0.98105001 118 124 120
0.059374876 -0.1169664 0.98025018 66 81 93
0.059308253 -0.1146785 0.97915 0 0 0
0.059256755 -0.11242414 0.97829998 62 73 76
0.059250705 -0.11025809 0.97819984 99 114 114
0.059235562 -0.10807589 0.97794998 112 126 120
0.059190135 -0.10584064 0.97720003 92 99 91
0.059181053 -0.10367234 0.97705013 74 85 78
0.059202246 -0.10155667 0.97740012 55 64 62
0.059220415 -0.099434376 0.97769994 19 31 40
0.059253734 -0.097335629 0.97825003 3 12 32
0.059205282 -0.095103107 0.97745007 86 82 82
0.059159856 -0.092878878 0.97670013 114 101 93
0.059099279 -0.090634704 0.97570002 112 102 96
0.05900237 -0.088340543 0.97410011 128 123 112
0.058893345 -0.086035728 0.97230017 149 144 124
0.058802478 -0.083764724 0.97080004 117 111 90
0.058760069 -0.0815676 0.97010005 114 107 85
0.058772188 -0.079447247 0.97030002 112 103 85
0.058744937 -0.077274233 0.96984994 111 99 81
0.058769159 -0.075169027 0.97025001 109 99 81
0.058814596 -0.073088415 0.97100008 106 100 80
0.058826707 -0.070964307 0.97120011 105 98 81
0.058890305 -0.068899579 0.9722501 107 98 80
0.058899391 -0.066768423 0.97240001 108 94 77
0.058926653 -0.064656533 0.97285014 106 92 77
0.059005577 -0.062597439 0.97415292 104 91 71
0.059062939 -0.060510583 0.97509992 114 106 82
0.059126534 -0.058425684 0.97615004 105 98 81
0.059211332 -0.056356329 0.97755015 64 55 40
0.059235554 -0.054225367 0.9779501 64 54 41
0.059317332 -0.052143235 0.97930002 66 56 44
0.05938397 -0.05004238 0.98040009 66 52 39
0.059444547 -0.047931805 0.98140013 64 52 39
0.059465747 -0.045786515 0.98175001 68 56 43
0.059486944 -0.043639671 0.98210013 66 57 44
0.059471797 -0.041465953 0.98185015 66 57 45
0.059438486 -0.03928132 0.98130018 58 49 41
0.059377909 -0.037082098 0.98030013 58 46 43
0.059368826 -0.034917559 0.98015004 61 48 42
0.059353672 -0.032750338 0.97989988 61 50 41
0.059371859 -0.030601392 0.98019993 60 51 44
0.059374887 -0.028443864 0.98025 66 56 48
0.05940517 -0.026298184 0.9807502 71 58 50
0.059453625 -0.024157684 0.9815501 73 62 51
0.059492998 -0.022010306 0.98220003 72 60 50
0.059508145 -0.019851975 0.98245013 66 55 46
0.059553571 -0.017701544 0.98320019 56 41 34
0.059571736 -0.015540699 0.98350012 58 40 29
0.059556596 -0.013371052 0.98325002 63 45 33
0.059547514 -0.01120365 0.98310006 89 75 58
0.059547514 -0.0090382844 0.98310006 84 73 59
0.059532374 -0.006871175 0.98284996 87 73 61
0.059517227 -0.0047051632 0.98260003 87 73 61
0.059496034 -0.002539997 0.98225009 87 73 60
