ply
format ascii 1.0
comment PCL generated
element vertex 1053
property float x
property float y
property float z
property uchar red
property uchar green
property uchar blue
element camera 0
property float view_px
property float view_py
property float view_pz
property float x_axisx
property float x_axisy
property float x_axisz
property float y_axisx
property float y_axisy
property float y_axisz
property float z_axisx
property float z_axisy
property float z_axisz
property float focal
property float scalex
property float scaley
property float centerx
property float centery
property int viewportx
property int viewporty
property float k1
property float k2
end_header
0.0010853249 -0.09154506 0.98549998 77 70 70
0.0010852838 -0.089370996 0.98546237 78 69 59
0.0010849396 -0.087172791 0.98514998 82 68 56
0.001084435 -0.084963366 0.9846915 88 74 61
0.0010844155 -0.082793012 0.98467398 117 104 93
0.0010846643 -0.080642693 0.98490012 124 113 103
0.001083453 -0.078385696 0.98380011 112 108 90
0.0010834531 -0.076218799 0.98380011 105 102 81
0.0010815255 -0.073920175 0.98205006 104 93 74
0.0010806995 -0.071702316 0.98130018 85 72 51
0.0010805344 -0.069530293 0.98115015 86 72 52
0.001079378 -0.067297138 0.98010004 176 168 166
0.0010782767 -0.065071896 0.97910011 184 177 169
0.0010767899 -0.062828593 0.97775012 187 181 168
0.0010748626 -0.060566418 0.97600013 189 187 172
0.0010744773 -0.058395755 0.97565013 181 182 161
0.0010740364 -0.056223731 0.97525012 181 178 157
0.0010732108 -0.054034073 0.97450006 149 143 117
0.001073376 -0.051895641 0.9746502 135 129 96
0.0010724235 -0.049704757 0.9737854 178 173 154
0.0010727153 -0.047572836 0.97405005 120 118 104
0.0010715588 -0.045378432 0.97299993 104 97 82
0.0010713937 -0.043228649 0.9728502 106 99 85
0.0010720545 -0.041111194 0.97345001 102 96 83
0.0010728254 -0.038995109 0.97415006 103 101 86
0.0010750277 -0.036925118 0.97614992 107 111 101
0.0010771204 -0.034842741 0.97805005 100 97 86
0.001079323 -0.03275536 0.98004997 53 45 40
0.0010806996 -0.030635729 0.98130018 68 61 54
0.0010809751 -0.028481582 0.9815501 51 44 35
0.0010819109 -0.026342425 0.98240006 47 36 25
0.0010823515 -0.024188453 0.98280013 44 30 29
0.0010820761 -0.022018148 0.98255002 51 41 35
0.0010818557 -0.019849954 0.98235017 54 42 35
0.0010813052 -0.017677236 0.98185015 86 74 60
0.0010814706 -0.015516995 0.98200017 88 76 61
0.0010810851 -0.013349293 0.98165005 82 72 58
0.0010813603 -0.011189976 0.98190004 78 70 62
0.0010813053 -0.0090267928 0.98185003 71 63 60
0.0010817457 -0.0068669803 0.98225009 48 41 40
0.0010822413 -0.0047056424 0.98270005 47 40 40
0.0010838385 -0.0025449097 0.98414993 46 39 40
0.0010848847 -0.00037759729 0.98510009 31 24 25
0.001086041 0.0017940819 0.98614997 20 14 16
0.0010865364 0.0039679734 0.98660004 10 2 0
0.0010879132 0.0061488273 0.98785007 17 8 4
0.0010883536 0.0083280243 0.98825014 29 20 13
0.0010894549 0.010515364 0.98925 62 53 41
0.0010910516 0.012712876 0.99070007 72 65 58
0.0010923534 0.01491275 0.99188173 91 88 75
0.0010952668 0.01714306 0.99452746 103 104 87
0.0010978197 0.019378658 0.99684554 86 87 83
0.0010997818 0.02161286 0.99862707 64 60 56
0.0011016293 0.023852419 1.0003048 62 61 58
0.0011034413 0.026098531 1.00195 64 61 59
0.0011038267 0.028315309 1.0023001 74 72 64
0.0011061946 0.030588437 1.0044501 54 55 57
0.0011065251 0.032810621 1.0047499 0 1 8
0.0011061947 0.035013217 1.0044497 8 15 23
0.0011068002 0.037245989 1.0049999 31 32 36
0.0011077913 0.039494921 1.0059 53 47 45
0.001108287 0.04172916 1.0063502 41 39 35
0.0011094433 0.043991588 1.0074 45 38 32
0.0011087277 0.046180658 1.0067501 48 42 35
0.0011094986 0.048431769 1.0074499 51 45 38
0.0011103797 0.050690986 1.0082501 54 50 48
0.0011109301 0.052937984 1.0087501 51 51 50
0.0011114257 0.055184454 1.0092001 54 52 52
0.0011123068 0.057452805 1.0099999 46 49 55
0.0011134082 0.059736501 1.011 37 44 51
0.0011146746 0.062033802 1.01215 36 46 50
0.0011157207 0.064323477 1.0131001 52 56 58
0.0011156106 0.066548347 1.0129999 64 66 61
0.0011165467 0.068837285 1.0138502 82 79 75
0.001118419 0.071189553 1.0155499 79 76 73
0.0011214957 0.073628381 1.0183437 73 72 70
0.0011269079 0.076237515 1.0232582 81 78 79
0.0011313281 0.078799196 1.0272717 93 87 89
0.0011416499 0.081801459 1.0366446 101 97 94
0.0011496079 0.084670864 1.0438704 100 100 94
0.0011555271 0.087417886 1.0492451 95 97 93
0.0034569055 -0.18476932 1.0463164 116 109 102
0.0034467741 -0.18193001 1.0432498 135 128 114
0.0034399896 -0.17927857 1.0411965 133 127 115
0.0034366972 -0.17681588 1.0402 120 110 108
0.0034300894 -0.17418918 1.0382001 88 78 77
0.0034224142 -0.17151777 1.0358768 61 38 46
0.0034191862 -0.16907659 1.0349001 52 31 29
0.0034061901 -0.16616306 1.0309662 75 48 33
0.0034018264 -0.16368236 1.0296454 134 108 94
0.0033953309 -0.16110626 1.0276794 131 108 102
0.00338462 -0.15834162 1.0244377 104 86 78
0.0033734988 -0.15557232 1.0210714 108 88 74
0.0033662659 -0.15299457 1.0188825 129 112 90
0.0033589571 -0.15042314 1.0166701 178 177 150
0.0033511959 -0.14784141 1.014321 170 172 152
0.0033442713 -0.14530644 1.0122249 169 170 146
0.0033392329 -0.14286134 1.0107002 157 155 134
0.0033349381 -0.14045432 1.0094001 158 154 134
0.003331139 -0.13807352 1.0082499 193 188 175
0.003328165 -0.13573149 1.0073501 205 199 180
0.0033255215 -0.1334067 1.0065501 174 178 176
0.003322548 -0.13107237 1.00565 131 128 107
0.0033204008 -0.12877408 1.005 146 141 120
0.0033190786 -0.1265101 1.0046003 199 193 171
0.003316575 -0.12420361 1.0038421 192 198 183
0.0033167663 -0.12199958 1.0038999 168 174 151
0.0033155687 -0.11974515 1.0035375 131 123 90
0.0033147014 -0.11750402 1.0032749 137 128 100
0.0033122648 -0.11520946 1.0025375 141 125 104
0.003305038 -0.11275472 1.00035 153 134 101
0.0032961171 -0.11025298 0.99765003 160 148 108
0.0032848013 -0.10768461 0.99422503 171 161 129
0.0032790476 -0.10530996 0.99248332 204 208 195
0.0032682228 -0.10278349 0.98920709 203 203 197
0.0032599396 -0.10034969 0.98669994 146 146 136
0.0032539931 -0.097997293 0.98490012 142 138 128
0.0032525063 -0.095784195 0.98445004 130 122 119
0.003252713 -0.093621783 0.98451251 102 89 86
0.0032501933 -0.091382489 0.98375005 93 84 75
0.0032526716 -0.089283712 0.98449993 91 82 71
0.0032526716 -0.087115258 0.98449993 83 70 57
0.0032495535 -0.084865391 0.98355627 83 69 54
0.0032517803 -0.082755692 0.98423022 105 90 79
0.0032501935 -0.080548525 0.98374999 116 104 94
0.0032473851 -0.078313999 0.98289996 122 119 105
0.0032480459 -0.076164581 0.98310006 119 115 96
0.0032434198 -0.07389383 0.98170006 118 110 89
0.0032412731 -0.071684048 0.98105013 104 93 69
0.0032406119 -0.069509022 0.98085004 96 84 61
0.0032384642 -0.067304 0.98020011 86 76 63
0.0032381336 -0.065138355 0.98010004 101 91 79
0.0032343343 -0.062905699 0.97895002 137 125 112
0.003230535 -0.060678124 0.97780001 175 170 155
0.0032292134 -0.058500499 0.9774 180 174 155
0.003229379 -0.05635057 0.97745007 188 185 164
0.0032265708 -0.054150511 0.97660005 172 167 141
0.0032275622 -0.052015446 0.97689998 169 162 129
0.0032265703 -0.049848422 0.97660005 177 172 151
0.0032262399 -0.047692489 0.97650003 123 121 103
0.0032206238 -0.045462377 0.97479999 104 98 83
0.0032222755 -0.043337509 0.97530013 111 104 90
0.0032222755 -0.041189332 0.97530019 106 101 87
0.0032231014 -0.039051153 0.97555006 103 99 85
0.0032282225 -0.036961056 0.97710001 105 109 99
0.0032335084 -0.034865905 0.97870004 104 99 89
0.0032374733 -0.032750335 0.97990006 63 54 46
0.0032429248 -0.030643534 0.9815501 70 67 56
0.0032429243 -0.028481584 0.9815501 59 51 39
0.0032449074 -0.026335722 0.98215008 35 23 7
0.0032462287 -0.024182297 0.98255002 28 12 0
0.0032454026 -0.022012547 0.9823001 63 51 40
0.0032455674 -0.019849954 0.98235017 54 43 22
0.0032439157 -0.017677236 0.98185015 95 81 66
0.0032437504 -0.015513835 0.98180008 87 74 65
0.0032427595 -0.013347255 0.98150015 76 63 50
0.0032424289 -0.011184275 0.98140001 70 63 53
0.003241603 -0.0090203565 0.98115015 57 50 46
0.003243255 -0.0068627866 0.98165017 40 32 32
0.0032444117 -0.0047022915 0.98200017 34 27 30
0.0032475502 -0.0025418072 0.98295003 28 22 22
0.0032531668 -0.00037742476 0.98464984 22 11 9
0.0032571317 0.0017935364 0.98585004 27 19 14
0.0032589487 0.0039671692 0.98640001 37 26 17
0.0032639045 0.0061491393 0.98790008 51 42 35
0.0032639042 0.0083250757 0.98790008 58 49 40
0.003267043 0.01051111 0.98885 79 70 62
0.0032716685 0.012707102 0.99025011 85 78 73
0.003276129 0.014908512 0.99160004 98 90 83
0.0032840588 0.01713397 0.99400008 108 106 94
0.0032929785 0.019375827 0.99670011 87 87 84
0.0032986701 0.021608431 0.9984228 63 57 54
0.0033050831 0.023853829 1.0003637 54 51 47
0.0033103239 0.026098534 1.00195 52 47 43
0.0033113151 0.028313896 1.0022501 75 71 65
0.0033182532 0.03058539 1.0043499 51 51 54
0.0033197396 0.032812253 1.0048 0 0 5
0.0033180877 0.035007987 1.0042999 15 17 25
0.0033197396 0.037238576 1.0048002 28 27 32
0.003322548 0.039485116 1.0056502 42 36 40
0.0033235389 0.041712578 1.0059501 38 35 36
0.0033265129 0.043967579 1.00685 41 38 36
0.0033243657 0.04615543 1.0062001 44 40 40
0.0033268433 0.048407741 1.0069499 43 40 41
0.0033309732 0.050688475 1.0081999 38 35 41
0.0033308077 0.052906495 1.00815 32 31 38
0.0033326256 0.055157114 1.0086999 17 15 18
0.0033360943 0.057438575 1.00975 2 0 7
0.0033393987 0.059721738 1.0107502 0 0 2
0.0033441887 0.062036872 1.0121999 40 41 42
0.0033468318 0.064317137 1.0130001 58 58 55
0.0033458411 0.066528633 1.0126998 68 64 59
0.0033483184 0.06881012 1.01345 72 67 59
0.0033519524 0.071119457 1.0145501 75 75 71
0.0033620237 0.073574468 1.0175983 60 56 58
0.003366001 0.075905502 1.0188019 64 59 65
0.0033864386 0.078624003 1.0249879 85 78 80
0.0034232489 0.081760831 1.0361296 97 95 91
0.0034473669 0.084635101 1.0434293 97 92 90
0.0034635235 0.087340757 1.0483196 95 94 90
0.0057798093 -0.18766817 1.0496399 111 115 106
0.0057473918 -0.18431655 1.0437524 127 121 110
0.0057302089 -0.18147346 1.0406321 126 122 107
0.0057213497 -0.17890441 1.0390236 126 117 109
0.0057143373 -0.17639942 1.03775 110 101 98
0.0057031675 -0.17377332 1.0357215 77 65 67
0.0056947907 -0.17124012 1.0342001 47 26 32
0.0056815566 -0.16856956 1.0317967 62 42 40
0.0056684697 -0.16591385 1.02942 100 73 56
0.0056492863 -0.1630927 1.0259364 145 117 107
0.0056465054 -0.1607538 1.0254312 123 104 100
0.0056280252 -0.15797649 1.0220755 105 89 81
0.005613904 -0.15533455 1.0195107 109 92 74
0.0056009768 -0.15273641 1.017163 126 112 89
0.0055912696 -0.15023522 1.0154002 163 163 146
0.0055835606 -0.14779466 1.0140002 161 160 144
0.0055681407 -0.14515927 1.0112002 165 165 148
0.0055618095 -0.14276947 1.0100501 121 120 101
0.0055546495 -0.14036384 1.0087502 95 91 71
0.0055499696 -0.13802558 1.0079 117 103 87
0.0055461149 -0.13571127 1.0071999 154 134 117
0.0055425358 -0.13340668 1.00655 142 136 142
0.0055381311 -0.13108543 1.0057499 98 81 57
0.0055362033 -0.12882531 1.0054002 97 79 53
0.0055323485 -0.12652268 1.0046999 155 140 102
0.0055317986 -0.12429737 1.0046 181 180 159
0.0055297334 -0.12203908 1.0042251 179 177 150
0.0055286326 -0.11980331 1.0040251 134 130 110
0.0055223689 -0.11745866 1.0028875 115 99 81
0.0055162432 -0.11512183 1.001775 113 96 81
0.0055048182 -0.11268145 0.99970007 126 102 78
0.0054887114 -0.11015628 0.99677503 131 114 83
0.0054702009 -0.10759673 0.99341375 149 141 106
0.005460375 -0.10521932 0.99162924 170 169 157
0.005444285 -0.10273154 0.98870724 184 181 180
0.0054264884 -0.10022511 0.98547506 152 152 140
0.005417265 -0.097887859 0.98380005 147 144 135
0.00541224 -0.095632181 0.98288757 120 113 109
0.0054123094 -0.093468465 0.98290002 105 93 88
0.0054087304 -0.09124314 0.98225009 100 93 83
0.0054112771 -0.089121602 0.98271257 97 86 74
0.0054112081 -0.086955979 0.98270005 89 75 62
0.0054106573 -0.084782884 0.98260021 86 72 58
0.0054150629 -0.08268588 0.98340005 94 78 67
0.0054112086 -0.080462553 0.98270005 104 91 81
0.0054070777 -0.078238294 0.9819501 118 115 100
0.0054081799 -0.076090977 0.9821502 117 113 92
0.0054023978 -0.073848665 0.9811002 111 105 84
0.0053999191 -0.071654812 0.98065007 107 96 73
0.0054015713 -0.069516107 0.98095006 106 95 70
0.0053985422 -0.067317739 0.98039997 81 70 57
0.005399093 -0.065164946 0.98050004 63 54 40
0.0053963396 -0.062973186 0.98000014 98 87 73
0.0053911079 -0.060755689 0.97904998 128 120 104
0.0053880792 -0.058566332 0.97850001 142 136 118
0.0053878045 -0.056408219 0.97845012 182 180 163
0.0053803697 -0.054178238 0.97710001 177 177 157
0.0053820219 -0.052042067 0.97739995 175 174 146
0.0053820219 -0.049889259 0.97739995 174 173 151
0.0053809201 -0.047726683 0.97720003 149 148 129
0.005373212 -0.045509014 0.97580016 134 133 111
0.0053762407 -0.043384172 0.97635013 112 110 90
0.0053778924 -0.041246347 0.97664994 105 101 88
0.0053800945 -0.039111197 0.97704995 102 97 84
0.005388354 -0.037015896 0.97854996 103 99 91
0.0053933105 -0.034892626 0.97944993 100 95 87
0.0054007452 -0.032780416 0.98080015 74 69 58
0.0054073543 -0.03065758 0.98200005 76 72 60
0.0054070787 -0.028493192 0.98194999 76 68 55
0.0054095564 -0.026342427 0.98240006 43 30 15
0.0054134107 -0.024195835 0.98310012 36 19 2
0.0054109329 -0.022020388 0.9826501 65 54 44
0.0054117586 -0.019859049 0.98280013 63 49 30
0.0054084552 -0.01768354 0.98220015 107 94 79
0.0054076291 -0.015517786 0.98205012 100 88 79
0.0054043247 -0.013346573 0.98145008 87 76 62
0.0054040491 -0.011184275 0.98140013 75 68 62
0.0054004691 -0.0090166805 0.98074996 68 62 56
0.0054034991 -0.0068603391 0.98130018 36 29 30
0.0054034991 -0.0046989387 0.98130006 29 23 28
0.0054079043 -0.0025396091 0.98210013 29 23 23
0.0054158885 -0.0003770031 0.98354995 30 20 17
0.0054249736 0.0017923536 0.98520005 35 27 23
0.0054293796 0.0039655608 0.98600006 52 41 31
0.005436813 0.0061457148 0.98735011 66 56 51
0.0054379138 0.0083221253 0.98755008 71 64 55
0.005443695 0.010508453 0.98859996 85 75 66
0.0054525053 0.01270646 0.99020016 87 80 73
0.005458287 0.014903249 0.99125004 91 86 79
0.0054737059 0.017134834 0.99405003 95 94 80
0.0054882979 0.019375827 0.99670011 72 73 69
0.0054995115 0.021615218 0.99873626 51 45 44
0.005509974 0.023860333 1.0006365 46 39 36
0.0055205114 0.02611416 1.0025501 52 45 38
0.0055232639 0.028336499 1.0030501 59 52 48
0.0055320738 0.030594524 1.00465 43 37 37
0.005530973 0.032800823 1.0044501 7 7 10
0.0055284943 0.03499753 1.0039998 0 0 3
0.0055298712 0.037218191 1.0042498 0 0 0
0.0055334503 0.03945566 1.0049 0 0 0
0.0055348268 0.041679401 1.00515 0 0 0
0.0055408836 0.043941371 1.0062501 0 0 0
0.0055353777 0.046111856 1.00525 0 0 0
0.0055395076 0.048362061 1.0060002 0 0 0
0.0055455649 0.05063317 1.0071002 0 0 0
0.0055455649 0.052851398 1.0071001 0 0 0
0.0055496939 0.055110633 1.0078502 20 14 9
0.0055554756 0.057390232 1.0088999 31 23 17
0.0055604326 0.059665598 1.0098 49 44 41
0.0055692433 0.06198784 1.0114001 66 59 56
0.0055747507 0.064279027 1.0123999 70 60 57
0.0055753002 0.066515498 1.0125002 68 62 58
0.0055788797 0.068789743 1.01315 75 67 59
0.0055827345 0.071070381 1.01385 79 78 73
0.00559778 0.073501028 1.0165824 49 39 49
0.0056065284 0.075858496 1.0181711 55 47 60
0.0056184013 0.078266524 1.0203276 77 69 69
0.0056919176 0.081567399 1.0336783 93 78 78
0.0057412656 0.084571064 1.0426403 96 88 86
0.0057668774 0.087255083 1.0472912 92 91 88
0.0080135642 -0.1881448 1.0395 133 139 128
0.0080690412 -0.18714191 1.0466964 136 138 127
0.0080293324 -0.18392681 1.0415454 143 137 124
0.0080169877 -0.18135352 1.0399442 135 132 115
0.0079964157 -0.17860346 1.0372757 136 129 117
0.0079783872 -0.17592125 1.034937 135 123 115
0.0079733115 -0.17353122 1.0342786 117 106 95
0.007955729 -0.17087547 1.0319977 56 41 15
0.0079525253 -0.16853449 1.031582 112 91 68
0.0079205465 -0.16559379 1.0274341 121 103 80
0.0078921253 -0.16274472 1.0237477 124 117 117
0.0078821545 -0.16028705 1.0224539 98 87 84
0.0078583304 -0.15755734 1.0193635 115 98 85
0.0078419 -0.15498738 1.0172323 107 92 73
0.0078244861 -0.15240762 1.0149733 118 110 87
0.00781711 -0.15003052 1.0140166 136 138 122
0.0078023351 -0.1475177 1.0121001 129 127 111
0.0077837864 -0.14494306 1.0096936 132 131 118
0.0077769817 -0.14259434 1.008811 104 100 82
0.0077622486 -0.14010644 1.0069001 73 65 50
0.0077564665 -0.13778597 1.00615 87 71 54
0.0077549242 -0.13554287 1.0059499 105 84 66
0.0077483719 -0.13321453 1.0051001 95 85 83
0.0077398932 -0.13085735 1.0039999 83 68 41
0.0077400855 -0.12864913 1.0040252 79 63 33
0.007731413 -0.12629601 1.0028999 124 107 70
0.0077348812 -0.12414271 1.00335 174 172 152
0.0077331467 -0.12190539 1.0031251 179 177 151
0.0077283285 -0.11962135 1.0024999 135 132 112
0.0077198492 -0.11728442 1.0013999 108 94 74
0.0077103092 -0.11493653 1.0001626 111 93 76
0.0076948912 -0.11250816 0.99816245 128 106 78
0.0076713776 -0.10997255 0.9951123 138 120 89
0.0076429555 -0.10738139 0.99142551 145 138 102
0.0076327049 -0.10505661 0.99009591 146 143 131
0.00760504 -0.10250294 0.98650724 149 146 151
0.0075914115 -0.10015029 0.9847393 126 125 118
0.0075749187 -0.097768448 0.98260003 118 116 109
0.007569137 -0.095531218 0.98184997 100 96 83
0.0075668246 -0.093340084 0.9815501 103 95 81
0.0075587295 -0.091080606 0.9805001 104 96 78
0.0075656683 -0.089002579 0.98140001 94 86 72
0.0075622001 -0.086801134 0.98095 88 76 60
0.0075637414 -0.084657766 0.98115015 85 71 58
0.0075687515 -0.082551345 0.9818002 82 67 54
0.0075692656 -0.080394313 0.98186696 91 76 63
0.0075633549 -0.078170598 0.98110008 117 107 96
0.0075668246 -0.076044492 0.98155022 108 97 82
0.0075602718 -0.07381855 0.98070002 103 93 77
0.0075610438 -0.071665786 0.98080003 101 90 69
0.0075637414 -0.069530293 0.98115003 102 93 72
0.0075606578 -0.06734176 0.98075008 93 84 66
0.0075625842 -0.065198168 0.98100013 76 64 48
0.0075595006 -0.063011736 0.9806 97 83 66
0.0075579593 -0.060839467 0.98039997 120 108 90
0.007553719 -0.058647133 0.97984999 125 110 89
0.007553333 -0.056486048 0.97980011 166 158 144
0.0075398423 -0.054230917 0.97804993 164 163 148
0.0075409994 -0.052084666 0.97819996 172 167 147
0.0075433115 -0.049945407 0.97850007 178 176 157
0.0075413836 -0.047777962 0.97825003 166 167 145
0.0075325193 -0.045569647 0.97710007 153 153 132
0.0075340606 -0.043426383 0.97729999 116 115 91
0.0075386851 -0.041299134 0.97790003 100 97 85
0.0075444668 -0.03917525 0.97865021 100 92 83
0.0075583435 -0.037087772 0.98045003 100 93 84
0.0075602718 -0.034937151 0.98070014 98 90 83
0.0075691366 -0.032815509 0.98184997 85 79 65
0.0075764619 -0.03068256 0.98280013 85 81 67
0.007577233 -0.028520759 0.98290026 88 81 70
0.0075760758 -0.02635181 0.98275012 73 64 47
0.0075799311 -0.024199527 0.98325014 54 40 6
0.0075760758 -0.022022631 0.98275012 88 75 57
0.0075768465 -0.019860057 0.98285007 88 78 45
0.0075710649 -0.017681738 0.98210013 127 118 99
0.007569137 -0.015514625 0.98185015 117 110 98
0.0075625842 -0.013340455 0.98099995 97 89 75
0.007561428 -0.011178008 0.98085004 83 76 64
0.0075579584 -0.0090134637 0.98040009 77 74 64
0.0075595016 -0.0068554454 0.9806 32 26 22
0.0075595006 -0.0046955864 0.9806 27 21 19
0.0075660544 -0.0025379281 0.98145008 30 25 20
0.0075768465 -0.00037673482 0.98285007 45 33 22
0.0075911083 0.001791444 0.9846999 51 41 25
0.0075972751 0.0039635501 0.98550004 59 50 35
0.0076096104 0.006144159 0.98710012 66 59 46
0.0076130787 0.0083221253 0.98755008 69 61 48
0.0076204031 0.010507389 0.98849994 80 72 66
0.0076319664 0.012703894 0.99000013 81 74 70
0.0076400251 0.014900175 0.99104536 84 76 69
0.0076607354 0.017129347 0.9937318 90 88 75
0.0076819351 0.019371588 0.9964819 53 51 48
0.0077013476 0.021620924 0.99900007 44 36 30
0.0077147335 0.023862716 1.0007364 51 41 39
0.0077275583 0.026110252 1.0024002 56 49 41
0.0077298707 0.028326612 1.0027002 56 51 45
0.0077410489 0.030579299 1.0041499 42 38 37
0.0077418191 0.032794289 1.0042498 23 24 25
0.0077418191 0.03500624 1.00425 15 15 19
0.0077476008 0.037245989 1.005 4 4 8
0.0077464445 0.039453693 1.00485 4 0 1
0.0077464445 0.041666962 1.0048499 3 0 1
0.0077564665 0.043937005 1.0061501 2 1 1
0.0077499142 0.04611415 1.0052999 2 2 1
0.0077549242 0.048359655 1.00595 4 3 2
0.0077610924 0.050615571 1.0067501 16 13 16
0.0077610924 0.052833032 1.0067501 22 21 23
0.0077649467 0.055077821 1.0072503 45 38 34
0.0077741989 0.057364635 1.0084498 54 45 37
0.0077795945 0.059627194 1.00915 60 55 50
0.0077911569 0.061941873 1.0106499 69 63 57
0.0077969409 0.064215556 1.0114002 69 62 57
0.0077973246 0.066446528 1.0114501 65 60 56
0.00780195 0.068715058 1.0120502 74 67 58
0.0078069619 0.070989765 1.0127 79 76 72
0.0078247366 0.073387049 1.0150058 37 28 35
0.0078325197 0.075697899 1.0160154 46 38 52
0.0078458916 0.078068808 1.0177499 69 60 59
0.0079436908 0.081311554 1.0304363 91 66 67
0.0080305245 0.084494814 1.0417001 97 77 78
0.0080710575 0.087227307 1.046958 91 88 87
0.010320283 -0.18616423 1.0412284 151 151 138
0.010299662 -0.18350342 1.0391476 152 148 133
0.010273547 -0.18075517 1.0365131 148 146 129
0.010236629 -0.1778308 1.0327883 151 146 129
0.0102375 -0.17557095 1.0328763 153 148 132
0.010231001 -0.1731859 1.0322202 146 142 126
0.010211654 -0.17058919 1.0302685 93 90 62
0.010206139 -0.16822895 1.029712 140 128 111
0.01016655 -0.16531721 1.025718 140 137 126
0.01013525 -0.16255598 1.0225602 83 76 80
0.010117589 -0.16002437 1.0207779 85 68 64
0.010088195 -0.15731761 1.0178125 116 100 85
0.010062672 -0.1546835 1.0152376 113 96 75
0.010031544 -0.15197574 1.0120969 127 119 93
0.01002761 -0.14968778 1.0116999 151 152 134
0.010011256 -0.14721893 1.0100501 150 149 132
0.0099857319 -0.14462455 1.0074749 155 154 140
0.0099805286 -0.14233129 1.0069499 117 114 94
0.0099641774 -0.13988379 1.0053 71 64 48
0.0099607082 -0.1376216 1.00495 101 81 57
0.0099597163 -0.13539466 1.0048501 116 94 77
0.0099498034 -0.13304883 1.0038499 112 100 84
0.0099408831 -0.13072047 1.0029501 106 89 54
0.009942865 -0.128537 1.0031502 95 71 38
0.0099351844 -0.12622991 1.0023752 127 100 54
0.0099403877 -0.12408704 1.0029 167 162 139
0.0099327061 -0.12178387 1.0021251 174 167 146
0.0099220527 -0.11944833 1.0010501 113 105 94
0.0099085458 -0.11708386 0.99968755 111 88 72
0.0098998742 -0.11478139 0.9988125 114 96 75
0.0098721217 -0.11226581 0.99601251 138 121 97
0.0098419795 -0.10973593 0.99297154 149 137 107
0.0097998697 -0.10708867 0.98872298 154 150 124
0.0097922217 -0.10482906 0.9879514 147 143 130
0.009764351 -0.10236081 0.98513925 141 136 133
0.0097485464 -0.10002883 0.98354501 114 112 104
0.0097302599 -0.0976789 0.98170012 104 98 85
0.0097198542 -0.09541446 0.98065025 108 97 81
0.0097148977 -0.09320695 0.98015004 106 99 80
0.0097109331 -0.091010936 0.97975016 106 98 79
0.0097223306 -0.088957228 0.98090011 96 88 72
0.0097218351 -0.08679229 0.98085004 91 82 66
0.009717376 -0.084593043 0.98039997 87 75 59
0.0097238179 -0.082488284 0.98105013 83 70 52
0.0097220829 -0.080313116 0.9808749 90 77 59
0.009716385 -0.078106843 0.98030013 110 98 83
0.009717376 -0.075955383 0.98040009 111 96 80
0.0097079584 -0.073724464 0.97945011 101 90 75
0.0097084539 -0.071570799 0.97950011 94 85 67
0.0097129168 -0.069445238 0.97995013 95 86 69
0.0097109331 -0.067273103 0.97975004 88 78 61
0.009723817 -0.065201499 0.98105013 71 59 41
0.0097258007 -0.063053504 0.98125011 75 62 43
0.0097233225 -0.060876705 0.98099995 115 100 84
0.0097248089 -0.05872494 0.98115003 133 115 92
0.0097272862 -0.056578286 0.98140013 145 131 118
0.009711924 -0.054330725 0.97984999 133 127 114
0.0097089503 -0.052156549 0.97955006 140 130 107
0.0097039966 -0.049973473 0.97904998 175 167 161
0.0097005256 -0.047799937 0.97870004 176 172 156
0.0096906144 -0.045597628 0.97770011 174 172 154
0.0096916053 -0.043448597 0.97780007 138 136 115
0.0096995356 -0.041328698 0.97860003 101 98 81
0.0097079594 -0.039207272 0.97945011 93 84 75
0.0097243125 -0.037112359 0.98110008 93 84 74
0.0097267916 -0.034960311 0.98134995 96 83 75
0.0097342264 -0.032823861 0.98210001 99 90 78
0.009743643 -0.030690366 0.98305017 96 89 75
0.0097441366 -0.028526563 0.98310012 94 79 73
0.009740172 -0.026350472 0.98270005 99 83 68
0.0097421538 -0.024190912 0.98290002 95 79 55
0.009739181 -0.022019271 0.98260009 129 116 95
0.0097386856 -0.019853994 0.98255014 139 131 101
0.0097362064 -0.017685339 0.98230016 136 129 108
0.0097307572 -0.015513046 0.98175013 126 121 105
0.0097238189 -0.013341134 0.98105013 109 102 90
0.0097233234 -0.011179717 0.98100013 93 85 70
0.0097114295 -0.0090079485 0.97980005 91 84 72
0.0097178714 -0.0068543972 0.98044997 30 27 13
0.0097193578 -0.0046955873 0.9806 35 31 16
0.0097253053 -0.0025372808 0.98120004 62 57 46
0.0097396765 -0.00037665814 0.98265016 94 84 68
0.0097525623 0.0017900799 0.98395002 97 85 65
0.0097649517 0.0039623426 0.98519993 89 80 60
0.0097832885 0.0061438479 0.98705018 77 72 56
0.0097887395 0.0083225472 0.98760015 66 62 43
0.0097981542 0.010507921 0.98854989 75 72 61
0.0098105455 0.012701327 0.98979998 76 74 64
0.0098259086 0.014904752 0.99135005 79 78 65
0.0098516783 0.017133107 0.99395007 98 97 83
0.009872986 0.019364161 0.99610013 59 58 54
0.0098947948 0.021605778 0.99830008 51 40 34
0.0099161034 0.023855889 1.00045 56 45 39
0.0099289911 0.026093325 1.0017501 59 50 42
0.009935433 0.028318137 1.0024002 59 50 46
0.0099502997 0.030571688 1.0038998 51 41 37
0.0099507952 0.032784499 1.0039499 43 37 32
0.009952778 0.035002761 1.0041502 34 32 30
0.0099612018 0.037245981 1.0049999 28 27 24
0.0099612018 0.039459586 1.005 41 37 31
0.0099626891 0.041679405 1.0051498 46 42 37
0.0099716084 0.043932639 1.0060501 46 43 36
0.0099641765 0.04611415 1.0052998 47 43 35
0.0099681392 0.048347637 1.0057001 51 45 37
0.0099726003 0.050585408 1.0061499 60 53 47
0.0099730948 0.052804165 1.0061997 61 55 49
0.0099830078 0.05507509 1.0072001 65 57 48
0.0099909371 0.057339042 1.0080001 66 58 51
0.0099993609 0.059609465 1.00885 68 60 54
0.010012248 0.061911233 1.0101502 72 64 58
0.010020672 0.064190134 1.011 70 61 57
0.010021664 0.06642352 1.0111001 67 59 55
0.010026123 0.068681113 1.0115502 72 63 53
0.010024636 0.070898637 1.0114 76 70 63
0.010042213 0.073254555 1.0131733 40 29 31
0.010051718 0.075557597 1.0141323 40 31 39
0.010087311 0.078066751 1.0177231 70 60 56
0.010188542 0.081114329 1.0279367 87 62 62
0.010317574 0.084434375 1.0409549 85 63 62
0.010374434 0.087205142 1.0466915 91 84 80
0.012590386 -0.18582043 1.0393056 121 111 103
0.012563013 -0.18313226 1.037046 151 146 131
0.012518833 -0.18021213 1.0333989 149 147 130
0.012484726 -0.17745115 1.0305834 153 149 131
0.012487589 -0.17522135 1.0308198 156 151 135
0.012481826 -0.17287108 1.030344 158 154 137
0.012466678 -0.1703946 1.0290935 124 125 95
0.012427202 -0.16759557 1.0258348 144 131 115
0.012391687 -0.16486354 1.0229032 134 129 120
0.012362653 -0.16222954 1.0205066 68 60 66
0.012338354 -0.15966734 1.0185008 88 72 66
0.012306774 -0.15702105 1.0158938 106 85 65
0.01227361 -0.15436637 1.0131565 138 121 99
0.012235904 -0.15166743 1.0100439 161 155 132
0.012221517 -0.14926703 1.0088561 164 171 158
0.012206299 -0.14686184 1.0076001 163 170 160
0.012181843 -0.14435269 1.0055813 165 168 164
0.012169351 -0.14199206 1.00455 118 112 102
0.012149361 -0.13954988 1.0029002 71 58 42
0.012149362 -0.13734087 1.0029001 103 84 55
0.012153601 -0.13517907 1.0032499 127 116 91
0.01214391 -0.1328633 1.0024502 131 124 95
0.012137854 -0.13059011 1.00195 115 101 63
0.012140276 -0.12840885 1.0021501 94 73 40
0.012133916 -0.12613544 1.0016249 132 107 68
0.012139065 -0.12398186 1.00205 161 150 129
0.012123922 -0.12162285 1.0008 158 149 137
0.012101511 -0.11919775 0.99895 104 91 66
0.012085156 -0.11683935 0.99760008 110 92 64
0.012065426 -0.1144549 0.9959715 123 107 75
0.012020478 -0.11184297 0.99226081 130 121 93
0.011995856 -0.10943276 0.99022806 138 135 103
0.011952509 -0.10686417 0.98664999 161 157 139
0.0119415 -0.10459455 0.98574126 143 137 127
0.011919196 -0.10223206 0.98390019 127 124 121
0.011905869 -0.09995307 0.98280001 85 82 75
0.011884669 -0.097614221 0.98105001 76 71 58
0.01187316 -0.09536095 0.98010015 107 96 79
0.011865286 -0.093140356 0.97945011 109 100 82
0.011862861 -0.090964474 0.97925013 109 100 81
0.011873765 -0.088889226 0.9801501 96 88 72
0.011868919 -0.086694956 0.97975004 93 83 69
0.01186589 -0.084515385 0.9795 91 78 64
0.01187316 -0.082408406 0.98010004 91 77 60
0.011873205 -0.08024995 0.98010361 97 83 65
0.011862863 -0.078023173 0.97925007 102 89 75
0.011862862 -0.075866297 0.97924995 108 92 78
0.011858622 -0.073683068 0.97890007 99 88 73
0.011859228 -0.071530603 0.97895002 91 81 64
0.011870131 -0.069438152 0.97985011 90 82 64
0.011872554 -0.067293704 0.98005021 86 75 59
0.011894361 -0.065254673 0.98185015 76 64 45
0.011905869 -0.063153103 0.98280013 75 61 42
0.011910109 -0.061010115 0.98315001 84 71 52
0.011908292 -0.058835674 0.9830001 98 82 58
0.011906474 -0.056661874 0.98285007 126 115 99
0.011888908 -0.054416668 0.98140013 121 114 101
0.011878611 -0.052209787 0.98055011 124 114 90
0.011874371 -0.050032176 0.98020011 157 150 144
0.011865891 -0.047839012 0.9795 156 152 135
0.011858623 -0.045653589 0.97890013 177 174 154
0.011863468 -0.04351525 0.97930014 153 149 129
0.011871343 -0.041385707 0.97995013 112 110 93
0.011884669 -0.039271321 0.98105013 91 80 73
0.011897389 -0.037150182 0.98210013 93 82 73
0.011900418 -0.034995936 0.98235005 93 81 73
0.011904657 -0.032843925 0.98270005 97 87 75
0.011911927 -0.030698171 0.98330009 95 87 75
0.011910109 -0.028528014 0.98315012 80 67 59
0.011906475 -0.026354495 0.98285007 97 80 65
0.011906474 -0.024189679 0.98285007 103 85 60
0.011902841 -0.022018146 0.98255002 128 114 95
0.011902234 -0.019852985 0.98250008 146 139 109
0.011899812 -0.017685339 0.9823001 134 126 106
0.011893755 -0.015513835 0.98180008 127 121 107
0.011887698 -0.013344536 0.98130006 113 107 92
0.011892542 -0.011187695 0.98170006 96 88 74
0.011884062 -0.00901898 0.98100013 93 87 76
0.01189012 -0.0068617375 0.98150015 61 58 43
0.011893149 -0.0047010938 0.98175013 66 64 48
0.011893149 -0.0025387034 0.98175013 81 76 64
0.011911321 -0.00037688806 0.98325002 102 91 76
0.011920406 0.0017901706 0.98400003 111 99 80
0.011936154 0.0039627454 0.98529994 111 102 81
0.01195796 0.006144159 0.98710012 100 95 78
0.011965229 0.0083233882 0.9877001 88 83 65
0.011976132 0.010508452 0.98860008 84 79 68
0.011991879 0.012702611 0.98989999 79 78 67
0.012009447 0.014904752 0.99135 83 81 68
0.012039123 0.01713052 0.99380004 97 96 83
0.012059716 0.019352499 0.99549997 53 46 44
0.012083339 0.021587379 0.99745005 54 44 37
0.012110596 0.023838004 0.99969995 59 49 42
0.012125133 0.026071182 1.0009 59 51 43
0.01213543 0.028299773 1.00175 59 51 46
0.012146937 0.030535141 1.0027001 59 49 44
0.012149966 0.03275184 1.0029502 59 50 43
0.012154812 0.034974866 1.00335 51 47 42
0.012168137 0.037225604 1.0044501 47 44 36
0.012163898 0.039424248 1.0041001 56 50 42
0.012163898 0.04163586 1.0041001 57 49 44
0.012175406 0.043888964 1.0050497 57 49 44
0.012160263 0.046045344 1.0038002 61 51 46
0.01215663 0.048241876 1.0035001 61 55 47
0.012163898 0.050482344 1.0041001 64 55 48
0.012162687 0.052688707 1.0040002 67 58 49
0.012177831 0.054968458 1.0052502 75 67 59
0.012192973 0.057253707 1.0065002 78 71 65
0.012205694 0.059532661 1.0075501 73 68 62
0.012224471 0.061846875 1.0091002 73 65 58
0.012238403 0.064142525 1.0102499 69 62 57
0.012240218 0.066377543 1.0104001 66 60 52
0.012246276 0.068636984 1.0109001 73 67 57
0.012245671 0.070860073 1.0108497 87 79 72
0.012262994 0.073189959 1.0122802 51 44 41
0.01226566 0.075435966 1.0124999 48 40 36
0.012316136 0.077985704 1.0166669 68 60 53
0.012472888 0.081246056 1.0296062 88 66 64
0.012620166 0.0845 1.0417639 88 66 63
0.012660537 0.087072209 1.0450963 89 82 78
0.012718626 0.092096664 1.0498912 84 79 78
0.014917677 -0.1885916 1.0419687 101 94 91
0.014846991 -0.18541384 1.0370314 112 101 92
0.014861571 -0.18330951 1.0380499 154 148 133
0.014755708 -0.17973368 1.0306557 151 148 132
0.01474573 -0.17734358 1.0299586 148 146 127
0.014749201 -0.17511617 1.030201 147 148 128
0.014726882 -0.1725855 1.0286422 152 154 137
0.014669665 -0.16965812 1.0246457 129 130 124
0.014643705 -0.16710503 1.0228324 126 125 124
0.014610841 -0.16448216 1.020537 114 112 110
0.014568436 -0.16176352 1.017575 78 62 51
0.014543742 -0.15925178 1.0158502 99 76 59
0.014517523 -0.15673122 1.0140188 109 94 65
0.014492023 -0.15422638 1.0122374 155 145 120
0.014459988 -0.15166087 1.0100001 181 179 161
0.014439228 -0.14922172 1.00855 161 172 171
0.01441489 -0.14675252 1.00685 134 152 150
0.014384109 -0.14422619 1.0047003 126 132 132
0.014364066 -0.14181535 1.0033001 86 75 63
0.014338294 -0.13935503 1.0014999 64 51 34
0.014342589 -0.13719022 1.0017999 103 84 55
0.014347601 -0.13503084 1.0021501 131 120 94
0.014336146 -0.13271749 1.0013498 140 132 105
0.014326841 -0.13042721 1.0007002 122 110 71
0.014329704 -0.12824871 1.0009 90 70 37
0.014322904 -0.12598431 1.0004251 136 110 71
0.01432541 -0.12380246 1.0005999 134 122 100
0.014312523 -0.12148918 0.99969995 123 113 102
0.014271721 -0.11894716 0.99685001 95 83 57
0.014234496 -0.11644702 0.99425 128 109 82
0.014224237 -0.11417472 0.99353349 144 128 97
0.014165597 -0.11152472 0.98943746 148 138 111
0.014143346 -0.10917363 0.98788339 154 150 119
0.014107315 -0.10672517 0.9853667 137 136 126
0.014084171 -0.10438327 0.98375005 116 111 105
0.01407057 -0.10211774 0.98279989 109 104 99
0.014056253 -0.099851355 0.9817999 77 65 48
0.014036924 -0.097554512 0.98045003 76 57 38
0.01402547 -0.09531717 0.97965014 93 75 59
0.014009008 -0.09305004 0.97850007 110 93 81
0.014003997 -0.090862289 0.97815007 111 99 88
0.01401187 -0.088757716 0.97869998 97 89 72
0.014007576 -0.086575493 0.97840011 97 88 72
0.014001945 -0.08438655 0.97800666 97 87 70
0.014001893 -0.08223211 0.9780032 97 87 67
0.013994333 -0.080034725 0.97747517 96 87 68
0.013993974 -0.077879757 0.97744989 94 84 68
0.013993974 -0.075726829 0.97745001 99 86 72
0.014000418 -0.073607802 0.97790003 96 83 70
0.014007578 -0.071490422 0.97840005 89 78 63
0.014026903 -0.069431074 0.97975016 86 78 61
0.014039074 -0.067331463 0.98060006 83 75 55
0.014059117 -0.065264657 0.98200005 80 71 53
0.014073434 -0.063165948 0.98299998 80 70 51
0.014089897 -0.061072171 0.98415005 76 64 47
0.014079159 -0.058859609 0.98340005 73 60 38
0.014077729 -0.056687821 0.98330009 86 70 57
0.014054107 -0.054430526 0.98165017 87 73 58
0.01403979 -0.052215111 0.98065007 101 85 62
0.01403836 -0.050050043 0.98054999 130 116 113
0.014031914 -0.047868319 0.98010015 139 127 114
0.014024755 -0.045686238 0.97959995 167 163 151
0.01403263 -0.043553021 0.98014992 157 151 135
0.014045517 -0.04143218 0.98105013 135 128 111
0.014053391 -0.039293326 0.98160017 89 83 61
0.014072003 -0.037180439 0.98290002 96 88 76
0.014077012 -0.035027996 0.98325014 98 88 76
0.014079874 -0.032868985 0.98345011 95 86 75
0.014087034 -0.030718457 0.98394996 96 87 76
0.014080591 -0.028538171 0.98350012 63 48 40
0.014072718 -0.026357174 0.98295009 86 65 53
0.014075582 -0.024197064 0.98315001 93 77 63
0.014074149 -0.022029351 0.98305005 118 107 88
0.014069138 -0.019857027 0.98270005 144 139 113
0.01406914 -0.01769254 0.98270005 130 124 105
0.014056253 -0.015513835 0.98180008 128 121 105
0.014049811 -0.013345216 0.98135006 113 107 94
0.014054823 -0.011187694 0.98170006 99 90 77
0.014049096 -0.0090217367 0.98130006 98 90 75
0.014053389 -0.0068624364 0.98160011 84 82 64
0.014060548 -0.0047027702 0.98210013 85 81 64
0.014063409 -0.002540126 0.9823001 90 85 75
0.014084171 -0.00037707979 0.98375005 96 86 70
0.014097773 0.0017914439 0.98470002 116 100 89
0.014111372 0.0039641531 0.98565006 125 115 95
0.014134278 0.0061450927 0.98725003 117 114 96
0.014148598 0.0083280234 0.98825008 112 111 91
0.014160765 0.010513768 0.9891001 90 88 75
0.014172936 0.012703253 0.98995 90 91 77
0.014194409 0.014906257 0.99145001 97 99 82
0.014224475 0.017126212 0.99355 78 75 70
0.014240226 0.019335974 0.99465001 50 43 39
0.014265278 0.021564653 0.9964 59 52 44
0.014287472 0.023796272 0.99795008 62 53 46
0.014301071 0.026019087 0.99890006 64 54 49
0.014313238 0.02824327 0.99975002 65 55 49
0.01432541 0.030471187 1.0006001 63 53 47
0.014333285 0.032693062 1.0011501 62 53 46
0.014337579 0.034908634 1.0014498 57 52 45
0.014354045 0.037157036 1.0026001 54 50 43
0.014354045 0.039365359 1.0026001 55 48 41
0.014356907 0.041581966 1.0028001 54 47 42
0.014369791 0.043830015 1.0037 56 48 44
0.014362633 0.046017818 1.0031999 59 51 45
0.01435476 0.048201017 1.00265 62 57 47
0.014369791 0.050462227 1.0037 64 56 48
0.01437337 0.052686084 1.00395 70 61 53
0.014394847 0.054979395 1.00545 82 73 66
0.014408447 0.057248019 1.0064001 85 78 75
0.01442348 0.059526749 1.0074502 77 72 65
0.014447103 0.061846882 1.0091002 72 63 57
0.014460703 0.064129829 1.0100501 70 63 57
0.014463568 0.066367686 1.0102499 66 59 52
0.014472157 0.068633594 1.0108502 83 77 67
0.01446643 0.070832029 1.01045 99 92 85
0.014480032 0.073126324 1.0113999 63 57 54
0.014489767 0.075404681 1.0120803 52 44 41
0.01453873 0.077896208 1.0155003 65 57 50
0.014624961 0.080608226 1.021523 89 72 68
0.014898412 0.084407456 1.0406231 89 70 65
0.014941869 0.086952426 1.0436583 89 80 78
0.015012189 0.091980793 1.0485699 86 83 79
0.017111275 -0.18976185 1.0358286 93 85 81
0.017167527 -0.18809664 1.0392339 104 88 72
0.01707142 -0.18476744 1.033416 123 111 97
0.017013898 -0.18187636 1.0299342 155 148 130
0.016974794 -0.17919506 1.0275669 151 148 132
0.016958265 -0.17675944 1.0265659 147 146 129
0.016979055 -0.17471227 1.0278246 148 148 133
0.016962541 -0.17228064 1.026825 151 151 137
0.016927892 -0.1696717 1.0247275 114 111 107
0.016892286 -0.16706252 1.0225723 92 90 83
0.016850747 -0.16440496 1.0200579 90 81 69
0.016800238 -0.16167212 1.0170002 86 69 52
0.016759764 -0.15904801 1.01455 119 96 80
0.016730031 -0.15653515 1.01275 153 138 109
0.016698642 -0.15401497 1.01085 169 161 135
0.016651561 -0.1513605 1.0080001 181 178 160
0.016627608 -0.14892581 1.00655 147 156 157
0.016601184 -0.14647557 1.0049499 104 121 118
0.016567314 -0.14396781 1.0029001 88 94 95
0.016555753 -0.14165989 1.0022 73 59 48
0.016530145 -0.13923678 1.0006498 88 70 48
0.016529318 -0.13702589 1.0005999 111 91 66
0.016540054 -0.13490957 1.00125 125 116 90
0.016527668 -0.13260484 1.0005 143 133 106
0.016516102 -0.13030989 0.99980003 129 121 85
0.0165128 -0.12808213 0.99960005 95 78 47
0.016510323 -0.12586156 0.99945003 136 112 84
0.016509496 -0.12365399 0.99940002 145 129 110
0.016481413 -0.12124612 0.99770004 154 141 125
0.016424417 -0.11863694 0.99425 141 128 85
0.016369052 -0.11605444 0.99089825 144 133 98
0.016341675 -0.11368146 0.98924112 158 147 116
0.016318904 -0.11134721 0.98786259 164 161 133
0.016282354 -0.10892683 0.98564988 164 163 136
0.016247664 -0.10652839 0.98354995 104 105 104
0.016228255 -0.10423738 0.98237497 83 75 70
0.016217101 -0.10200347 0.98169994 101 89 80
0.01619976 -0.099734403 0.98065013 90 66 48
0.016184887 -0.097484864 0.97975004 91 67 50
0.016169196 -0.095234469 0.97880012 85 68 51
0.016156806 -0.093007252 0.97805005 94 77 64
0.016146895 -0.090797283 0.97745001 99 83 79
0.016155155 -0.088689707 0.97794998 99 88 72
0.016149372 -0.086504705 0.97759992 104 95 80
0.016145362 -0.084330514 0.97735739 99 92 78
0.016147796 -0.082190171 0.97750443 101 91 75
0.016131368 -0.079955712 0.97651005 98 89 75
0.01614403 -0.077865943 0.97727662 92 80 67
0.016136156 -0.075676471 0.97680008 88 76 64
0.016146069 -0.073570155 0.97740012 87 72 59
0.016156808 -0.071464829 0.97805005 86 74 62
0.016170846 -0.069370836 0.97889996 86 75 63
0.016194802 -0.067314304 0.98035002 82 73 55
0.016218755 -0.06525135 0.98180008 81 70 55
0.016234446 -0.063149884 0.98274994 81 69 52
0.016249152 -0.061040528 0.98364007 82 69 53
0.016252825 -0.058887292 0.98386258 82 69 52
0.016232796 -0.056650348 0.9826501 83 69 52
0.016213799 -0.054422211 0.98150003 75 64 45
0.016199756 -0.052215111 0.98065013 70 58 36
0.01619645 -0.050044943 0.98045003 87 72 58
0.016199756 -0.047895171 0.98065007 119 103 88
0.016195629 -0.045723546 0.98039997 112 106 92
0.016203886 -0.043586355 0.98090011 140 127 113
0.016219581 -0.04146596 0.98185015 148 136 123
0.016232794 -0.03933537 0.98264998 116 107 85
0.016255099 -0.037222058 0.98400003 104 99 81
0.016260881 -0.035067178 0.98435009 104 96 80
0.016248489 -0.032873996 0.98360002 99 95 77
0.016246837 -0.030704413 0.98350012 100 96 80
0.016243534 -0.028532367 0.98330021 62 46 30
0.016232794 -0.026349127 0.9826501 78 61 42
0.01622949 -0.024179835 0.98245001 87 70 55
0.016227013 -0.022012547 0.9823001 110 97 75
0.016226187 -0.019847933 0.98225021 141 132 112
0.016231142 -0.017689839 0.98255014 134 126 106
0.016223708 -0.015518578 0.98210013 120 113 97
0.016217103 -0.013349975 0.98170012 104 97 88
0.016231142 -0.011197383 0.98255014 102 94 82
0.016228667 -0.009031849 0.98240012 104 97 82
0.016236097 -0.0068711741 0.98285019 98 91 77
0.016243532 -0.0047085169 0.98330003 94 86 75
0.016250141 -0.0025437463 0.98369998 90 82 73
0.016277399 -0.00037769313 0.98535001 82 70 55
0.016280703 0.0017929906 0.98555005 94 85 74
0.016292267 0.0039665662 0.9862501 124 111 95
0.01631787 0.0061485157 0.98779994 121 111 97
0.016327785 0.008329289 0.9884001 118 111 102
0.016337695 0.010512704 0.98900002 92 94 83
0.016346779 0.01269812 0.98954999 100 98 87
0.01636908 0.014897989 0.99089992 101 99 89
0.016404595 0.017117593 0.9930501 66 63 62
0.016419467 0.019322369 0.99395001 57 47 44
0.016445896 0.021546258 0.99554998 63 57 49
0.016464069 0.023765277 0.9966501 62 56 49
0.016478105 0.025982622 0.99749994 63 57 51
0.016498758 0.028215017 0.99875003 65 58 54
0.016510323 0.030436167 0.99945003 62 57 51
0.016528493 0.032673467 1.00055 62 56 50
0.016531795 0.03488424 1.0007502 61 55 48
0.016549971 0.037129238 1.0018501 59 53 45
0.01654749 0.039330021 1.0016999 54 47 40
0.016555753 0.041557081 1.0022001 53 47 42
0.016558226 0.043771069 1.0023501 52 46 43
0.016549142 0.045953594 1.0018001 57 48 45
0.016541706 0.048138518 1.0013498 61 54 49
0.016563186 0.050409444 1.00265 65 58 48
0.016569793 0.052638851 1.0030499 73 64 56
0.016601179 0.054952055 1.0049503 84 75 68
0.016625959 0.057250869 1.0064499 83 76 69
0.016646605 0.059541516 1.0077 87 81 76
0.016677165 0.06187446 1.0095502 63 59 51
0.016692858 0.064158395 1.0105 70 63 56
0.016697817 0.066403814 1.0108 91 87 77
0.016708553 0.068674326 1.0114499 103 97 87
0.016700294 0.070867084 1.0109501 97 92 87
0.016718466 0.073173322 1.0120499 74 66 61
0.016720943 0.075413615 1.0122001 66 59 50
0.016766099 0.077852741 1.0149333 71 63 56
0.016964156 0.081034303 1.0269226 96 82 71
0.017141812 0.084168524 1.0376772 91 76 71
0.017231774 0.086907834 1.0431231 89 82 77
0.017290041 0.089507028 1.0466503 88 84 77
0.019614575 -0.20116252 1.0476756 200 201 187
0.019565051 -0.19835287 1.0450305 166 173 162
0.019487988 -0.19527887 1.0409142 132 138 132
0.019409902 -0.19221291 1.0367433 94 92 72
0.019365912 -0.18949892 1.0343939 113 104 92
0.019375037 -0.1873088 1.0348809 140 128 111
0.019290213 -0.18421933 1.0303504 150 137 125
0.019226734 -0.18135116 1.0269597 154 147 130
0.019168777 -0.17854932 1.023864 152 149 133
0.019184755 -0.17644116 1.0247178 151 149 132
0.019195348 -0.17428026 1.0252833 149 148 134
0.019182751 -0.17190912 1.0246105 148 148 135
0.019158609 -0.16943881 1.023321 115 111 107
0.019115157 -0.16680565 1.0210003 108 104 101
0.019082638 -0.16427688 1.0192633 117 106 95
0.019038396 -0.1616562 1.0169002 117 98 75
0.018991591 -0.15902446 1.0144002 134 116 88
0.018956957 -0.15650421 1.01255 175 168 143
0.018924192 -0.15400736 1.0107999 172 169 150
0.018869897 -0.15134552 1.0078999 168 167 154
0.018850241 -0.14897019 1.00685 107 115 116
0.018821223 -0.14652656 1.0053 79 82 74
0.018789392 -0.14406829 1.0035999 81 73 68
0.018775353 -0.14175178 1.0028502 81 61 41
0.018736975 -0.13925767 1.0007999 102 82 58
0.018730417 -0.13700537 1.00045 117 95 72
0.018736038 -0.13484219 1.0007502 124 109 87
0.018722933 -0.13254517 1.0000501 136 121 103
0.018711699 -0.1302643 0.99945003 133 121 94
0.018707018 -0.12803088 0.99920017 119 107 82
0.018696722 -0.12576079 0.99864995 128 106 84
0.01869766 -0.12356738 0.99870002 151 135 116
0.018647775 -0.12104386 0.99603587 172 153 134
0.018639024 -0.11879425 0.99556857 176 166 136
0.018528622 -0.11591075 0.98967153 176 173 145
0.018485697 -0.11346743 0.9873786 186 179 152
0.0184655 -0.11117109 0.98630017 187 188 166
0.018429931 -0.10878869 0.98440009 182 180 159
0.018396232 -0.10642551 0.98259991 81 84 85
0.018374698 -0.10413923 0.98144996 57 48 41
0.018368147 -0.10194113 0.98109996 62 48 39
0.018355045 -0.099708974 0.98039997 84 60 43
0.018352233 -0.097534612 0.98025006 93 69 51
0.018325092 -0.095234469 0.97880012 91 72 56
0.018302621 -0.092964455 0.97759992 90 73 62
0.01829326 -0.090764761 0.97710007 91 74 69
0.018299814 -0.088644348 0.97745001 87 74 57
0.018280156 -0.086398534 0.9764002 95 86 71
0.01827376 -0.084218428 0.97605836 95 87 70
0.018269274 -0.082048446 0.97581881 99 89 73
0.018254884 -0.079836175 0.97505009 98 89 74
0.018270794 -0.077756256 0.97590005 89 79 64
0.018266113 -0.075587392 0.97565001 86 74 61
0.018284839 -0.073513702 0.97665006 86 73 59
0.018304493 -0.071439266 0.97770005 86 73 61
0.018327897 -0.069374382 0.97895002 86 75 64
0.018363468 -0.067348644 0.98085004 83 72 54
0.018383125 -0.065257989 0.9819001 80 69 54
0.01840185 -0.063159518 0.98289996 81 69 53
0.018422442 -0.061062865 0.98400003 81 69 53
0.018412145 -0.058862597 0.98345006 82 69 52
0.018396232 -0.056647472 0.98260009 85 70 53
0.01837283 -0.054413892 0.98135012 81 71 52
0.018355045 -0.052201807 0.98040009 83 71 51
0.0183513 -0.050032176 0.98019999 76 60 47
0.018354107 -0.047880519 0.98035014 89 73 59
0.018361596 -0.045739871 0.98075008 79 72 59
0.018377507 -0.043617457 0.98160011 98 87 73
0.018399036 -0.041503966 0.98275006 126 115 103
0.018417763 -0.039379407 0.98374999 128 119 97
0.018446783 -0.037271239 0.98530006 107 102 85
0.018459888 -0.035125963 0.98600006 102 96 80
0.018439293 -0.032917447 0.98490012 104 99 83
0.018424317 -0.03072314 0.98409998 101 96 80
0.018421508 -0.028551225 0.98394996 65 49 33
0.018411208 -0.026369238 0.98339999 78 61 41
0.018408399 -0.024199527 0.98324996 87 72 56
0.018404655 -0.022029353 0.98304999 106 92 71
0.018394357 -0.019852985 0.98250008 132 123 103
0.018406529 -0.017700646 0.98315001 136 129 108
0.018411208 -0.015539115 0.98339999 115 109 94
0.018399036 -0.013364254 0.98275006 99 91 80
0.018411206 -0.011207069 0.98339999 100 92 79
0.018414956 -0.0090428833 0.98360002 104 97 81
0.018429935 -0.0068820105 0.98439997 101 94 79
0.018442104 -0.0047168955 0.98505008 97 90 77
0.018453335 -0.0025487884 0.98564994 90 86 75
0.018476734 -0.00037828728 0.98689997 67 56 41
0.018481417 0.0017959013 0.98715019 67 57 45
0.018487033 0.0039713914 0.98745 100 86 70
0.018506687 0.0061528729 0.98850012 104 93 81
0.01851137 0.0083322385 0.98875016 105 99 89
0.018529158 0.010520144 0.98970014 85 86 77
0.018525414 0.012697479 0.98950005 98 94 83
0.018541327 0.014889719 0.99034995 97 96 87
0.018575963 0.01710294 0.99220008 54 47 46
0.018592812 0.019305842 0.99309999 66 57 51
0.018609662 0.021512713 0.99400008 66 59 54
0.018633064 0.023731889 0.99525005 65 58 52
0.018651789 0.025950063 0.99625003 65 59 52
0.018677065 0.028182531 0.99759996 65 58 53
0.018692978 0.030405715 0.9984501 61 58 51
0.018712636 0.032639176 0.9995001 62 58 51
0.018724803 0.034863319 1.00015 64 59 51
0.018746333 0.037108861 1.0013002 63 59 49
0.018747268 0.039316274 1.00135 58 51 45
0.018748205 0.041523907 1.0014001 55 48 44
0.018745396 0.043723028 1.00125 54 45 43
0.0187351 0.045903143 1.0007001 54 47 44
0.018736033 0.048109673 1.0007498 58 50 47
0.018762248 0.050384294 1.0021499 67 60 51
0.018775355 0.052628357 1.0028501 75 66 56
0.018814672 0.054952055 1.0049502 82 75 66
0.018842751 0.057250869 1.0064501 84 78 69
0.018868029 0.059547432 1.0078001 89 86 82
0.018896112 0.061859138 1.0093002 65 62 53
0.018916706 0.064152047 1.0103999 76 70 62
0.018924192 0.066403821 1.0108 97 92 84
0.018937299 0.068677731 1.0115001 98 93 88
0.01892513 0.070860073 1.0108498 90 82 79
0.018938234 0.073137179 1.0115499 77 69 61
0.018956956 0.075439692 1.0125501 73 66 57
0.018994523 0.077823862 1.0145568 72 69 61
0.019057676 0.080324687 1.0179299 93 85 79
0.019299172 0.083613023 1.0308288 91 74 74
0.019535594 0.086935639 1.0434572 88 80 75
