# .PCD v0.7 - Point Cloud Data file format
VERSION 0.7
FIELDS x y z rgb
SIZE 4 4 4 4
TYPE F F F F
COUNT 1 1 1 1
WIDTH 954
HEIGHT 1
VIEWPOINT 0 0 0 1 0 0 0
POINTS 954
DATA ascii
0.02912063 -0.031195048 0.56260002 3.960815e-39
0.030384088 -0.031219998 0.56305009 4.0526504e-39
0.031657957 -0.03125326 0.56365001 4.1444887e-39
0.032940306 -0.031292085 0.56435001 4.2370389e-39
0.034237843 -0.031341977 0.56525004 4.4217875e-39
0.035580151 -0.031427931 0.56679988 4.2377564e-39
0.036939044 -0.031522185 0.56850004 3.4080027e-39
0.038255047 -0.031574856 0.56945002 2.3945809e-39
0.039568268 -0.031622 0.5703001 1.8410539e-39
0.040849466 -0.031641405 0.57064998 1.4726316e-39
0.042095304 -0.031633087 0.57050002 1.1946083e-39
0.043306291 -0.031599816 0.5699001 1.1938895e-39
0.044491172 -0.031549904 0.56899995 1.1938895e-39
0.045672096 -0.031500004 0.56810009 1.4704736e-39
0.046865564 -0.03146119 0.56740004 1.6555837e-39
0.048094105 -0.031447329 0.56715006 1.8399735e-39
0.049325906 -0.031436242 0.56695002 2.1165576e-39
0.05057466 -0.031436242 0.56695002 2.2094707e-39
0.051823415 -0.031436242 0.56695002 2.3938606e-39
0.053076856 -0.031439014 0.56699997 2.5786106e-39
0.054325718 -0.031439014 0.56700003 2.6708048e-39
0.055603988 -0.031455647 0.56729996 2.7630004e-39
0.056873567 -0.031466737 0.56750011 2.8548387e-39
0.058138896 -0.031475049 0.56765002 2.9477518e-39
0.059404887 -0.031483363 0.5678001 3.6860287e-39
0.060708933 -0.031511102 0.56830013 3.9629758e-39
0.06202063 -0.03154159 0.56885004 4.0551714e-39
0.063334741 -0.031572089 0.56940007 4.146288e-39
0.064611591 -0.031583183 0.56960005 4.0537322e-39
0.065912448 -0.031605363 0.57000005 3.8689837e-39
0.067238621 -0.03163863 0.57059997 3.9601017e-39
0.068543434 -0.031660806 0.57099992 3.9597402e-39
0.06984999 -0.031682976 0.57140005 3.9597416e-39
0.071133442 -0.03169407 0.57160014 4.0515742e-39
0.072431497 -0.031711161 0.57190835 4.1437685e-39
0.074115306 -0.031893685 0.57520014 4.23632e-39
0.076145753 -0.032216731 0.58102596 4.6058228e-39
0.078521676 -0.032672845 0.58925194 4.8831314e-39
-0.099796817 -0.028550196 0.53619993 1.8367323e-39
-0.098799713 -0.028603435 0.53720003 1.5612273e-39
-0.097852692 -0.028672654 0.53850001 1.3775577e-39
-0.096810222 -0.028715247 0.53929996 1.2857194e-39
-0.09574648 -0.028752524 0.54000008 1.0102101e-39
-0.09465339 -0.028781811 0.54055005 1.0102087e-39
-0.093609765 -0.028827067 0.54140002 8.2653488e-40
-0.0924685 -0.02884304 0.54170001 7.3469798e-40
-0.091250077 -0.028835054 0.54155004 7.3469658e-40
-0.090098843 -0.028848361 0.54180002 9.1836897e-40
-0.088921867 -0.028853688 0.54190004 7.3469518e-40
-0.087695912 -0.02884304 0.54170007 8.2653348e-40
-0.086494789 -0.028840378 0.54165006 1.0102073e-39
-0.085278124 -0.028832396 0.54149997 1.1938797e-39
-0.084131993 -0.028848365 0.54180008 1.1938797e-39
-0.082969293 -0.028859016 0.542 1.2857152e-39
-0.081843361 -0.028882975 0.54245007 1.3775535e-39
-0.080618829 -0.028872326 0.5422501 1.285718e-39
-0.079468429 -0.028888296 0.54255009 1.4693918e-39
-0.07828062 -0.028890962 0.5426001 1.3775549e-39
-0.077121019 -0.028904274 0.54285014 1.3775577e-39
-0.075932354 -0.028906936 0.54290009 1.3775577e-39
-0.074781053 -0.028924149 0.54322338 1.5612301e-39
-0.07356108 -0.028914919 0.54305011 1.5612301e-39
-0.072364986 -0.028914917 0.54305017 1.6530642e-39
-0.07118196 -0.028920243 0.54315019 1.7448968e-39
-0.070056498 -0.028949529 0.5437001 1.65306e-39
-0.06887161 -0.028954854 0.54380006 1.7448954e-39
-0.067798279 -0.029008102 0.54480016 1.8367295e-39
-0.066653334 -0.029032063 0.54524994 1.7448968e-39
-0.065572426 -0.029085305 0.54624999 1.8367309e-39
-0.064504758 -0.029146537 0.54739994 1.744894e-39
-0.063437834 -0.029210437 0.54860008 1.8367309e-39
-0.062308889 -0.02924771 0.54930007 1.8367295e-39
-0.061204683 -0.029298287 0.55025011 2.0203991e-39
-0.060058117 -0.029330233 0.55085003 1.9285664e-39
-0.058898233 -0.029356858 0.55135006 2.0204047e-39
-0.057730924 -0.029380817 0.55180007 1.9285692e-39
-0.05657186 -0.029410105 0.55234998 1.8367365e-39
-0.055420406 -0.029444713 0.55300009 1.8367379e-39
-0.054246478 -0.029468676 0.55345011 1.9285734e-39
-0.05305621 -0.029484648 0.55375004 2.0204103e-39
-0.05193013 -0.029537892 0.55474997 1.9285734e-39
-0.050827086 -0.029607121 0.55604994 1.8370925e-39
-0.049727213 -0.029681657 0.55745 1.9292881e-39
-0.048625533 -0.029758861 0.55890006 1.9300028e-39
-0.047504753 -0.029828077 0.5602001 1.9296426e-39
-0.0463452 -0.029876003 0.56110013 2.0204033e-39
-0.045141488 -0.029897302 0.56150001 1.8367295e-39
-0.043947734 -0.029926587 0.56204998 1.9285678e-39
-0.042778157 -0.029974502 0.56295007 1.9285706e-39
-0.041602168 -0.03002065 0.56381661 1.928572e-39
-0.040404823 -0.030053761 0.5644387 2.0204117e-39
-0.039257079 -0.030127041 0.56581485 2.021132e-39
-0.038090449 -0.030190149 0.56700003 3.0317064e-39
-0.037695125 -0.030889593 0.58013618 2.5760952e-39
-0.036432289 -0.030902285 0.5803746 2.5725205e-39
-0.012696816 -0.029231731 0.54899997 3.4987746e-39
-0.011506255 -0.029279208 0.54989177 3.4987844e-39
-0.010298967 -0.029290298 0.55010003 3.4987886e-39
-0.0090906294 -0.029300949 0.5503 3.5909843e-39
-0.0078806942 -0.029308936 0.55045009 3.5909843e-39
-0.0066688857 -0.029311597 0.55050009 3.6824554e-39
-0.0054553682 -0.029306272 0.55040008 3.6835246e-39
-0.00424268 -0.02930361 0.55035007 3.7760804e-39
-0.0030318615 -0.029316923 0.55060017 3.8693494e-39
-0.0018196122 -0.02932491 0.55075002 3.9611863e-39
-0.00060686795 -0.029340884 0.55105001 4.145216e-39
0.00060708809 -0.029351532 0.5512501 4.2370529e-39
0.0018225858 -0.02937283 0.55164993 4.3292471e-39
0.0030370923 -0.029367503 0.55155003 4.5147132e-39
0.0042542424 -0.029383475 0.55185002 4.5147146e-39
0.0054732095 -0.029402113 0.55220008 4.6061914e-39
0.0066925092 -0.029415425 0.55245006 4.6069088e-39
0.0079100421 -0.02941809 0.55250001 4.6069088e-39
0.0091319289 -0.029434066 0.5528 4.5150691e-39
0.010356073 -0.029452702 0.55315006 4.4232336e-39
0.01159222 -0.029497957 0.55400002 4.331038e-39
0.012829797 -0.029537892 0.55474997 4.3310394e-39
0.014069413 -0.029575165 0.55545008 4.6069074e-39
0.01531074 -0.029609779 0.55610001 4.6998191e-39
0.016557902 -0.02964971 0.55685008 4.9767675e-39
0.017795585 -0.02966835 0.55720007 5.1611602e-39
0.01903652 -0.029689649 0.55760014 5.2526398e-39
0.020268321 -0.029694971 0.55770004 4.975697e-39
0.021502484 -0.029702958 0.55785 4.7913057e-39
0.022743423 -0.02971893 0.55815005 4.6061928e-39
0.024002861 -0.029756198 0.55885005 4.4214428e-39
0.02527667 -0.029806782 0.55980003 4.2370487e-39
0.026538095 -0.029838726 0.56039995 4.1448531e-39
0.027809599 -0.029878667 0.56115007 4.0530148e-39
0.02909475 -0.029929247 0.56210011 4.0522945e-39
0.030375997 -0.029971838 0.56290013 4.1444887e-39
0.031649537 -0.030003786 0.56350005 4.1448489e-39
0.032940306 -0.03004905 0.56435001 4.3288772e-39
0.034231793 -0.030091643 0.56514996 4.3303135e-39
0.035570741 -0.030171514 0.56664997 4.2377592e-39
0.036909807 -0.030246055 0.56805003 3.5923968e-39
0.038221456 -0.030293981 0.56895006 2.8544842e-39
0.039498892 -0.030312616 0.56930017 2.0247291e-39
0.040799357 -0.030347222 0.5699501 1.655948e-39
0.042032592 -0.03033125 0.56965011 1.2864452e-39
0.043230303 -0.030291319 0.56890005 1.4693946e-39
0.04442079 -0.03024872 0.56810009 1.3779192e-39
0.045615815 -0.030211445 0.56739998 1.5626678e-39
0.046820134 -0.030182159 0.56684989 1.7481366e-39
0.048055947 -0.030174172 0.56669998 1.8406896e-39
0.049299806 -0.03017151 0.56665003 2.2091106e-39
0.05055682 -0.030176837 0.56674993 2.3938606e-39
0.051809706 -0.030179497 0.5668 2.5782504e-39
0.053062815 -0.030182162 0.56685001 2.7630018e-39
0.054325718 -0.030190146 0.56700003 2.7630032e-39
0.055594187 -0.030200798 0.56720001 2.8548401e-39
0.056858532 -0.030208787 0.56735003 3.03923e-39
0.058128655 -0.030219436 0.56755006 3.2243373e-39
0.059399653 -0.030230084 0.56775004 3.6867504e-39
0.060687564 -0.03024872 0.56809992 4.0551728e-39
0.062015183 -0.030285988 0.56880003 4.2384878e-39
0.063318051 -0.030309945 0.56925005 4.329966e-39
0.064594582 -0.0303206 0.56945008 4.1459335e-39
0.065900877 -0.030344561 0.5699001 3.9604632e-39
0.067238629 -0.030381832 0.57060015 4.1434168e-39
0.068549439 -0.030405795 0.57105005 4.1430552e-39
0.069856122 -0.030427095 0.57145005 4.1434139e-39
0.071139656 -0.030437741 0.57165003 4.1437713e-39
0.07244733 -0.030458149 0.57203329 4.419998e-39
0.07414896 -0.030640665 0.57546121 4.5129167e-39
0.076541357 -0.031097699 0.58404469 5.2497629e-39
-0.099647939 -0.027328327 0.53539997 1.7448982e-39
-0.098625004 -0.027371714 0.53624994 1.5612287e-39
-0.097607389 -0.027417654 0.53715003 1.2857222e-39
-0.096594825 -0.027466144 0.5381 1.1938853e-39
-0.095471658 -0.027484009 0.53845006 1.1020484e-39
-0.094373234 -0.027509525 0.53894997 1.0102129e-39
-0.093289897 -0.027540157 0.53955007 8.2653908e-40
-0.092169777 -0.027560573 0.53994995 7.3470219e-40
-0.090980463 -0.027560571 0.53994995 7.3469938e-40
-0.089841083 -0.027575884 0.54024994 7.3470219e-40
-0.088675737 -0.027583539 0.54039991 7.3469938e-40
-0.087444976 -0.027570779 0.54015005 9.1837318e-40
-0.086303174 -0.027586093 0.54044998 1.102047e-39
-0.08510489 -0.027583543 0.54039991 1.1938825e-39
-0.083968967 -0.027601406 0.54074997 1.285718e-39
-0.082816206 -0.027614167 0.54100013 1.2857194e-39
-0.08166986 -0.027629483 0.54129994 1.2857194e-39
-0.080499902 -0.027637139 0.5414499 1.2857208e-39
-0.079343922 -0.027649898 0.54170001 1.3775549e-39
-0.078165188 -0.027655005 0.54180002 1.3775549e-39
-0.077007368 -0.027667761 0.54205 1.5612287e-39
-0.075827435 -0.027672868 0.54215014 1.4693932e-39
-0.074626431 -0.027670315 0.54210013 1.5612301e-39
-0.073425613 -0.027667761 0.54205012 1.6530656e-39
-0.072225057 -0.027665209 0.54200006 1.7448997e-39
-0.071050912 -0.027672866 0.54215002 1.7448997e-39
-0.069888994 -0.027685627 0.5424 1.7448982e-39
-0.06871964 -0.027695838 0.5426001 1.7448968e-39
-0.067655161 -0.02774943 0.54365009 1.8367337e-39
-0.066524968 -0.027777504 0.54420006 1.7448982e-39
-0.065440372 -0.027825996 0.5451501 1.7448982e-39
-0.064363346 -0.027879592 0.54619998 1.8367323e-39
-0.063264377 -0.02792553 0.54709995 1.9285692e-39
-0.062167108 -0.027974019 0.54804999 1.8367337e-39
-0.061087888 -0.02803272 0.5492 1.8367323e-39
-0.059954543 -0.028068444 0.5499 1.9285678e-39
-0.058791406 -0.028091416 0.55035001 1.8367337e-39
-0.057636768 -0.028119493 0.55089998 1.9285692e-39
-0.056459207 -0.02813736 0.55124992 1.7448997e-39
-0.055305153 -0.028167987 0.55184996 1.7449011e-39
-0.054114174 -0.028180744 0.55209994 1.9285734e-39
-0.052941233 -0.028203711 0.55255002 1.9285734e-39
-0.051780354 -0.028234337 0.55314994 1.7448982e-39
-0.050639689 -0.028277719 0.55400002 1.9296426e-39
-0.049530968 -0.028341526 0.55524999 1.9300014e-39
-0.048425421 -0.028410435 0.55660003 2.0218369e-39
-0.04729275 -0.028466582 0.5577001 2.113671e-39
-0.046175878 -0.028535491 0.55905002 2.0204019e-39
-0.045008831 -0.028576324 0.55984998 1.8367281e-39
-0.043857805 -0.02862992 0.56090009 1.8367309e-39
-0.042686969 -0.028673306 0.56174999 1.8367337e-39
-0.041493949 -0.028703934 0.56235003 1.8367365e-39
-0.040301982 -0.028737199 0.56300187 2.0204117e-39
-0.039158408 -0.028808188 0.56439269 2.0204103e-39
-0.037947271 -0.028832491 0.56486881 1.9289364e-39
-0.03678776 -0.028899003 0.56617171 1.9289364e-39
-0.035597548 -0.028945215 0.56707698 1.8367408e-39
-0.035043694 -0.029531039 0.57855415 1.9307371e-39
-0.032588094 -0.029615581 0.58021051 2.023283e-39
-0.030745644 -0.02908165 0.56975007 2.3920697e-39
-0.029503662 -0.029094411 0.57000005 2.300593e-39
-0.028235797 -0.02908165 0.56975007 2.5786162e-39
-0.015115258 -0.028022511 0.54900002 3.4069475e-39
-0.013925577 -0.028061887 0.54977143 3.2239772e-39
-0.012726367 -0.028087731 0.55027783 3.1289173e-39
-0.011509569 -0.028076107 0.55005014 3.3136673e-39
-0.010297095 -0.028073553 0.55000007 3.4065832e-39
-0.0090873251 -0.028078657 0.55010003 3.4994949e-39
-0.0078785438 -0.028088864 0.5503 3.4998536e-39
-0.0066682799 -0.028096521 0.55045009 3.4994921e-39
-0.0054528909 -0.028081208 0.55015004 3.592045e-39
-0.004242294 -0.028088864 0.5503 3.6842407e-39
-0.0030324119 -0.028109282 0.55070001 3.8689865e-39
-0.0018194474 -0.028109282 0.55070001 3.961538e-39
-0.00060675776 -0.028122041 0.55094999 4.0533735e-39
0.00060681289 -0.028124591 0.551 4.145209e-39
0.0018220904 -0.028150121 0.55149996 4.1459265e-39
0.0030373677 -0.028155226 0.55159998 4.3310366e-39
0.0042530866 -0.028160328 0.5517 4.4228721e-39
0.0054737055 -0.028188402 0.55225009 4.4232308e-39
0.0066919038 -0.028196061 0.55239999 4.4228735e-39
0.0079093268 -0.028198611 0.55245006 4.5150677e-39
0.0091335811 -0.028221574 0.55290008 4.514709e-39
0.010357009 -0.028236886 0.55320013 4.5150691e-39
0.011594313 -0.028282827 0.55409992 4.5150677e-39
0.012828641 -0.028313454 0.55470002 4.5147104e-39
0.014068146 -0.028349185 0.55540007 4.6069074e-39
0.01531074 -0.028384913 0.55610001 4.6998219e-39
0.016556416 -0.028420642 0.55680007 4.9767661e-39
0.017793987 -0.028438509 0.55715019 4.9767661e-39
0.0190314 -0.028453823 0.55745012 5.0682415e-39
0.020271953 -0.028471688 0.55780005 4.8827783e-39
0.021508265 -0.028481897 0.55800009 4.7905826e-39
0.022753609 -0.02850231 0.55840003 4.4221588e-39
0.024002863 -0.028525284 0.55884999 4.3299632e-39
0.0252699 -0.028566113 0.55965 4.1448531e-39
0.026540462 -0.028606951 0.56044996 3.9611807e-39
0.027807122 -0.028640127 0.56109995 3.8686263e-39
0.029092159 -0.028688619 0.56205004 3.8682676e-39
0.0303679 -0.028724352 0.56274998 3.7764307e-39
0.031632688 -0.02874732 0.56320006 4.0522973e-39
0.032925718 -0.028793251 0.56410003 4.0533721e-39
0.034222703 -0.028839195 0.565 4.1459265e-39
0.03556446 -0.028918315 0.5665499 4.0544511e-39
0.036896814 -0.02898467 0.56784999 3.5920408e-39
0.038208023 -0.029030602 0.56875002 2.8537653e-39
0.039464198 -0.029033158 0.56880009 2.3009531e-39
0.040727779 -0.029040817 0.56895012 2.0247263e-39
0.041962478 -0.029028054 0.56870013 1.8396162e-39
0.043180905 -0.02900509 0.56825012 1.9314489e-39
0.044377781 -0.028969357 0.56754994 1.9318076e-39
0.045571592 -0.028933624 0.56684989 2.0247179e-39
0.046795353 -0.028918307 0.56654996 2.0257969e-39
0.048030503 -0.028910656 0.56639993 2.117994e-39
0.049269356 -0.028905552 0.56629997 2.4860562e-39
0.050525598 -0.028910656 0.56639993 2.6704461e-39
0.051800568 -0.028925966 0.56670004 2.7626417e-39
0.05305345 -0.028928522 0.56675005 2.7630004e-39
0.054320931 -0.028938731 0.56695002 2.947033e-39
0.055579484 -0.028943837 0.56705004 3.0392286e-39
0.056848507 -0.02895404 0.56725001 3.5005669e-39
0.058123536 -0.028966803 0.56750011 3.7775097e-39
0.059394419 -0.02897701 0.56770003 4.0551756e-39
0.060676884 -0.028992319 0.56800002 4.238848e-39
0.061977018 -0.029015291 0.56844991 4.3306849e-39
0.063290253 -0.029043367 0.56900001 4.3303261e-39
0.06457188 -0.029056128 0.56925005 4.2377704e-39
0.065871969 -0.029076543 0.56965005 3.960466e-39
0.067209154 -0.029112274 0.57035005 4.0519414e-39
0.068549439 -0.029148003 0.57105005 4.1437741e-39
0.069856122 -0.029168421 0.57145005 4.1434168e-39
0.071139656 -0.029178631 0.57165003 4.3274451e-39
0.072772391 -0.029329205 0.5746001 4.5121965e-39
0.073945984 -0.029292757 0.57388592 4.7884246e-39
0.07823921 -0.030472564 0.597 6.4501082e-39
-0.099536277 -0.026119759 0.53480005 1.6530614e-39
-0.098441079 -0.026141733 0.53525007 1.4693904e-39
-0.097425684 -0.026185688 0.53614998 1.285718e-39
-0.096325554 -0.026207667 0.53659993 1.1938825e-39
-0.095161371 -0.026212553 0.53670001 1.1938825e-39
-0.093987994 -0.026214993 0.53674996 1.102047e-39
-0.092900857 -0.026241858 0.53729987 1.0102115e-39
-0.091802761 -0.026266277 0.53780007 9.1837318e-40
-0.090651907 -0.026276046 0.53799999 9.1837458e-40
-0.089508489 -0.026288256 0.53825003 8.2653908e-40
-0.088355757 -0.026298026 0.53845006 1.0102115e-39
-0.087194063 -0.026305353 0.53860009 1.0102101e-39
-0.086039677 -0.026315123 0.5388 1.102047e-39
-0.084900171 -0.026329774 0.53910005 1.102047e-39
-0.083774857 -0.026349306 0.53949988 1.102047e-39
-0.082632497 -0.026363958 0.53979993 1.1938825e-39
-0.081518978 -0.026388373 0.54030001 1.1938825e-39
-0.080351233 -0.026395699 0.54044998 1.285718e-39
-0.07917548 -0.026400585 0.54055005 1.3775549e-39
-0.077970445 -0.026395699 0.54044998 1.2857208e-39
-0.076815575 -0.026407912 0.54069996 1.4693932e-39
-0.075631626 -0.026410352 0.54074991 1.4693932e-39
-0.07445436 -0.026415238 0.54084998 1.6530656e-39
-0.073283389 -0.026422566 0.54099989 1.6530628e-39
-0.072078466 -0.026417684 0.54089993 1.8367323e-39
-0.070926398 -0.026432332 0.54120004 1.8367337e-39
-0.069792353 -0.026454311 0.54165006 1.7448968e-39
-0.068611965 -0.026459193 0.54175007 1.8367323e-39
-0.067568056 -0.026517805 0.54295003 1.8367323e-39
-0.066433288 -0.026542228 0.54345 1.8367323e-39
-0.065338328 -0.026583742 0.54430014 1.8367351e-39
-0.064245507 -0.026627695 0.54519999 1.8367337e-39
-0.063125595 -0.026661878 0.54590005 1.7448982e-39
-0.062019635 -0.026703397 0.54675007 1.7448982e-39
-0.060904361 -0.02674247 0.54755008 1.8367337e-39
-0.059785552 -0.026781544 0.5483501 1.7449011e-39
-0.058636509 -0.026808405 0.54890001 1.7448997e-39
-0.057485055 -0.026835268 0.54945004 1.9285692e-39
-0.056336295 -0.02686457 0.55005014 1.8367351e-39
-0.055194907 -0.026898753 0.55074996 1.7448982e-39
-0.054011248 -0.026913408 0.55105007 1.8367365e-39
-0.052859783 -0.026945155 0.5517 1.9285692e-39
-0.051686745 -0.026967134 0.55214995 1.8370897e-39
-0.050548285 -0.027008649 0.55300003 2.0218355e-39
-0.049397152 -0.027045283 0.55375004 1.9296412e-39
-0.048273176 -0.027099004 0.55484998 2.0218355e-39
-0.047131628 -0.027145406 0.55580008 2.0214767e-39
-0.045998283 -0.027199123 0.55689996 2.0207579e-39
-0.044856086 -0.027250409 0.55795008 1.8367281e-39
-0.043732714 -0.027316343 0.55929995 1.928565e-39
-0.042591993 -0.027374953 0.56049985 1.8367295e-39
-0.041409094 -0.02740914 0.56120002 1.9285678e-39
-0.040223107 -0.027443323 0.56190002 1.928572e-39
-0.039054848 -0.027492169 0.56290013 1.8367379e-39
-0.037837207 -0.027508304 0.56323051 1.8367408e-39
-0.036670614 -0.027563903 0.56436867 1.8367422e-39
-0.035475064 -0.027600884 0.56512582 1.7449053e-39
-0.034989029 -0.028212642 0.57765168 1.8370953e-39
-0.033392262 -0.027941167 0.57209331 1.8388889e-39
-0.031836484 -0.027684037 0.56682861 2.1151171e-39
-0.030601099 -0.0276959 0.56707144 2.0236431e-39
-0.029389357 -0.02773108 0.56779164 2.392783e-39
-0.028143238 -0.027735507 0.56788236 2.5782518e-39
-0.026925853 -0.027769981 0.56858826 2.6711649e-39
-0.025684115 -0.027781472 0.56882352 2.762276e-39
-0.024481762 -0.027838934 0.57000005 2.7626347e-39
-0.017565634 -0.026862128 0.55000001 3.5938401e-39
-0.016324479 -0.026813289 0.54899997 2.3934962e-39
-0.015087726 -0.026764449 0.54800004 2.9459498e-39
-0.013917123 -0.02683467 0.54943782 2.8526835e-39
-0.012707223 -0.026835268 0.54944998 2.9459596e-39
-0.011493874 -0.026827941 0.54930001 3.3140232e-39
-0.010289608 -0.02684259 0.54959995 3.4069377e-39
-0.0090823704 -0.026852354 0.54979998 3.4994921e-39
-0.0078749666 -0.026864568 0.55005008 3.4998522e-39
-0.0066622226 -0.026859682 0.54995006 3.5920464e-39
-0.005451405 -0.026862124 0.55000001 3.5923996e-39
-0.0042411378 -0.02686945 0.55015004 3.6842365e-39
-0.0030321362 -0.026893869 0.55065 3.7767866e-39
-0.0018194474 -0.026896313 0.55070007 3.8693382e-39
-0.00060681289 -0.026910964 0.551 3.9615352e-39
0.00060681289 -0.026910964 0.551 4.0540896e-39
0.0018220901 -0.026935387 0.55149996 4.2384794e-39
0.0030376429 -0.026942711 0.55164999 4.3306793e-39
0.0042530866 -0.026945155 0.5517 4.331038e-39
0.0054737055 -0.026972016 0.55225009 4.423235e-39
0.006691298 -0.026976902 0.55235004 4.423235e-39
0.0079121906 -0.026991552 0.55265003 4.4228749e-39
0.0091360575 -0.027011091 0.5530501 4.4232336e-39
0.01035888 -0.027023301 0.55330008 4.5150663e-39
0.011596406 -0.027067263 0.55420005 4.5150677e-39
0.012829797 -0.027094122 0.55475003 4.5150677e-39
0.014064347 -0.027118543 0.55525005 4.6987415e-39
0.01531074 -0.027160054 0.55610001 4.6079822e-39
0.016553439 -0.027189355 0.55670005 4.7923735e-39
0.017792391 -0.027208894 0.55710012 4.9767647e-39
0.019029696 -0.027223548 0.55740005 4.9753312e-39
0.020271953 -0.027243083 0.55780011 4.6983856e-39
0.021512121 -0.027257735 0.5581001 4.6065487e-39
0.022759724 -0.027279714 0.55855 4.5139943e-39
0.024011452 -0.027304133 0.55905008 4.3292471e-39
0.025267642 -0.027330995 0.5596 4.1452146e-39
0.026535729 -0.027367627 0.56035012 4.0526603e-39
0.027799686 -0.027396929 0.56095004 3.9601059e-39
0.029074043 -0.027433559 0.56170005 3.868269e-39
0.03035171 -0.02747019 0.56245005 3.7760734e-39
0.031621449 -0.027497049 0.56300002 3.8682662e-39
0.032902364 -0.02753124 0.56370008 3.8689795e-39
0.034198474 -0.027575199 0.56459999 3.9615352e-39
0.035520524 -0.02763625 0.5658499 3.8696997e-39
0.036864325 -0.027709503 0.56735003 3.4080069e-39
0.038160991 -0.027743693 0.56805003 2.7626501e-39
0.039415631 -0.027746135 0.56810009 2.3013132e-39
0.04066693 -0.027746135 0.56810009 2.116566e-39
0.041899759 -0.027733928 0.56785005 2.0247263e-39
0.043112513 -0.027709505 0.56734997 2.0247235e-39
0.044319134 -0.027682643 0.56679988 2.0250823e-39
0.045527376 -0.027658224 0.56630003 2.1179954e-39
0.046741672 -0.027638689 0.56589991 2.2105469e-39
0.047983862 -0.027636249 0.56584996 2.3031013e-39
0.049238898 -0.027641129 0.56594992 2.4867737e-39
0.050498843 -0.027648453 0.5661 2.5786106e-39
0.051773142 -0.027663102 0.56640005 2.6708048e-39
0.053044092 -0.027675316 0.56665003 2.8555534e-39
0.054301769 -0.0276802 0.56675005 2.855552e-39
0.05556478 -0.027687525 0.56690007 3.1317802e-39
0.056843497 -0.027702177 0.56719989 3.4090887e-39
0.058113296 -0.027711948 0.56740004 3.7778684e-39
0.059378725 -0.02771927 0.56755006 4.2384864e-39
0.06067688 -0.02774125 0.56800002 4.2392067e-39
0.061977018 -0.027763229 0.56845003 4.3310422e-39
0.063267998 -0.027780324 0.56879997 4.3303233e-39
0.064560547 -0.02779742 0.56915003 4.0537393e-39
0.065866187 -0.027819401 0.56959999 3.8682704e-39
0.067220941 -0.027860915 0.57045007 4.05194e-39
0.068537429 -0.027885333 0.57095003 4.1437769e-39
0.069862224 -0.027912194 0.5715 4.3274507e-39
0.071152583 -0.027924592 0.57175392 4.4196449e-39
0.0727764 -0.028065141 0.57463163 4.6969451e-39
0.077166781 -0.029249543 0.59888208 6.5430297e-39
0.078525662 -0.02926437 0.59918571 6.5448261e-39
-0.099499047 -0.024932485 0.53460014 1.5612245e-39
-0.098376706 -0.024946477 0.53490007 1.5612273e-39
-0.09731666 -0.02497679 0.53555 1.285718e-39
-0.09615501 -0.02498145 0.53565013 1.1938825e-39
-0.094992921 -0.024986114 0.53575003 1.1938839e-39
-0.093839154 -0.024993114 0.53590006 1.1020484e-39
-0.092667423 -0.024995444 0.53595006 1.0102115e-39
-0.091555245 -0.025014099 0.53635001 1.0102115e-39
-0.090382308 -0.025016431 0.53640002 1.0102101e-39
-0.089259051 -0.025032755 0.53675002 9.1837458e-40
-0.088093206 -0.025037417 0.53685009 1.0102129e-39
-0.086959317 -0.025051409 0.53714997 1.0102115e-39
-0.085816115 -0.025063071 0.53740001 1.102047e-39
-0.084648192 -0.025067735 0.53750002 1.1020442e-39
-0.083472066 -0.025070066 0.53754997 1.1020442e-39
-0.082356937 -0.025091052 0.53799999 1.1938825e-39
-0.081254944 -0.025116706 0.53855002 1.1938825e-39
-0.080128208 -0.025135363 0.53895009 1.285718e-39
-0.078977741 -0.025147017 0.53920001 1.2857194e-39
-0.077790119 -0.025147017 0.53920001 1.2857194e-39
-0.076645099 -0.025161013 0.5395 1.3775563e-39
-0.07547079 -0.025165677 0.53959996 1.5612287e-39
-0.074296035 -0.025170337 0.53969997 1.6530656e-39
-0.073086977 -0.025163343 0.53955001 1.6530628e-39
-0.071911886 -0.025168007 0.53964996 1.6530614e-39
-0.070782229 -0.025188997 0.54009992 1.7448982e-39
-0.069657043 -0.025212314 0.54059994 1.8367323e-39
-0.068523318 -0.025233302 0.54105002 1.7448982e-39
-0.067474723 -0.025286937 0.54219997 1.7448968e-39
-0.066341601 -0.025310254 0.54269993 1.7448968e-39
-0.065242305 -0.025347566 0.54350007 1.7448982e-39
-0.06413947 -0.025384873 0.54430014 1.7448968e-39
-0.063021548 -0.025417518 0.54500008 1.7448997e-39
-0.061889183 -0.025445495 0.5456 1.7448997e-39
-0.060743075 -0.025468815 0.54609996 1.7448997e-39
-0.059600204 -0.025494466 0.54665005 1.8367379e-39
-0.058460254 -0.02552245 0.54724997 1.8367365e-39
-0.0572915 -0.025538776 0.54760003 1.7449011e-39
-0.056126337 -0.025557429 0.54800004 1.8367365e-39
-0.055014528 -0.025601739 0.54895008 1.8367351e-39
-0.053854417 -0.025625056 0.5494501 1.9285734e-39
-0.052720863 -0.025662368 0.55024999 1.8367365e-39
-0.051555701 -0.025685687 0.55075014 1.8374498e-39
-0.050429452 -0.025729993 0.5517 1.9289266e-39
-0.049272273 -0.025760308 0.55234993 1.9289252e-39
-0.04813398 -0.025802284 0.55325001 1.9292839e-39
-0.046974756 -0.025834927 0.55395001 2.0211166e-39
-0.045828976 -0.025876895 0.55484998 2.0207579e-39
-0.044683225 -0.025921201 0.55580002 1.9285636e-39
-0.043548953 -0.025974834 0.55694997 1.9285664e-39
-0.042394418 -0.026019145 0.55790007 1.8367323e-39
-0.041276276 -0.026089102 0.55940002 1.7448954e-39
-0.040122889 -0.026140403 0.56050003 1.928572e-39
-0.038940374 -0.026175383 0.56125003 1.8367379e-39
-0.03774783 -0.026205698 0.56190008 1.8367379e-39
-0.03656543 -0.026245341 0.56275004 1.6530684e-39
-0.035344131 -0.026258865 0.56304002 1.7449011e-39
-0.034138169 -0.02628519 0.56360453 1.7448997e-39
-0.03292723 -0.026309511 0.56412613 1.8367365e-39
-0.031750057 -0.026363794 0.56528986 1.7463374e-39
-0.030546397 -0.026399601 0.56605768 1.8392505e-39
-0.029326897 -0.02642419 0.566585 2.0236403e-39
-0.028135756 -0.026477654 0.56773138 2.0247193e-39
-0.026919222 -0.026511084 0.56844813 2.1169164e-39
-0.025711648 -0.02655703 0.56943339 2.2087519e-39
-0.024471655 -0.026572486 0.56976473 2.3931347e-39
-0.018742919 -0.025604069 0.54899997 2.2087421e-39
-0.017533695 -0.025604069 0.54899997 2.4838926e-39
-0.016293257 -0.0255551 0.54795003 2.5760882e-39
-0.015090682 -0.025562441 0.5481075 2.5775288e-39
-0.013894635 -0.025583079 0.54855001 2.761204e-39
-0.012688722 -0.025587747 0.54864997 3.1303452e-39
-0.011485504 -0.025599405 0.54890001 3.4069335e-39
-0.010281184 -0.025611063 0.54914999 3.4994893e-39
-0.009078241 -0.025629718 0.54954994 3.592045e-39
-0.0078699542 -0.025636714 0.54970008 3.592045e-39
-0.0066585885 -0.025634384 0.54965001 3.5916835e-39
-0.0054489272 -0.025639048 0.54974997 3.592038e-39
-0.0042407522 -0.02565537 0.55010003 3.5923968e-39
-0.0030313104 -0.025674026 0.55049998 3.7774999e-39
-0.0018189518 -0.02567636 0.55055004 3.8693368e-39
-0.00060642732 -0.025681024 0.55064994 4.053728e-39
0.00060670264 -0.025692683 0.55090004 4.0548084e-39
0.0018214295 -0.025711339 0.55129999 4.1466467e-39
0.0030373677 -0.025725331 0.55159998 4.3306793e-39
0.0042527011 -0.025727663 0.55164999 4.4228749e-39
0.0054727145 -0.025750984 0.55215001 4.4232378e-39
0.006693115 -0.025767306 0.55250007 4.4228763e-39
0.0079129077 -0.025776634 0.55269998 4.4228749e-39
0.0091393618 -0.025802284 0.55325001 4.5150677e-39
0.010362625 -0.025813941 0.55350006 4.5150663e-39
0.01160059 -0.025855904 0.55439997 4.5150691e-39
0.012837891 -0.025888557 0.55510008 4.5147104e-39
0.014073213 -0.025911873 0.55560005 4.6065487e-39
0.015321754 -0.025953848 0.55650008 4.699459e-39
0.016554926 -0.025965506 0.55675 4.7923735e-39
0.01780197 -0.025995821 0.55740011 4.699459e-39
0.019036522 -0.026005149 0.55760014 4.6987415e-39
0.020279225 -0.026023805 0.55800009 4.422156e-39
0.021517904 -0.026035463 0.55825001 4.3296017e-39
0.022759724 -0.026049459 0.55855006 4.3292457e-39
0.024015747 -0.02607744 0.55915004 4.328887e-39
0.025265381 -0.0260961 0.55955005 4.1444972e-39
0.026530992 -0.026128745 0.56024998 4.0523001e-39
0.027797207 -0.026159057 0.56090009 3.9601045e-39
0.029074043 -0.02619637 0.56169999 3.8679089e-39
0.030343616 -0.026224354 0.56230003 3.6842379e-39
0.031607412 -0.026245341 0.56275016 3.776072e-39
0.032893606 -0.026282649 0.56355006 3.776788e-39
0.034186356 -0.026322296 0.56440008 3.6838749e-39
0.035495408 -0.026371261 0.56545001 3.5920394e-39
0.036822088 -0.026429553 0.56669986 3.3158141e-39
0.038100533 -0.026450541 0.56715 3.0385153e-39
0.039360125 -0.026457533 0.56730014 2.5778987e-39
0.040598921 -0.026450539 0.56715 2.5778987e-39
0.041833349 -0.026441213 0.56694996 2.3942263e-39
0.043040324 -0.02641556 0.56639993 2.1179996e-39
0.044248771 -0.02639224 0.56589991 2.2098337e-39
0.045479134 -0.026382918 0.56569993 2.1187156e-39
0.046716888 -0.026378253 0.56560004 2.2105497e-39
0.047966905 -0.026380584 0.56564987 2.302744e-39
0.049221501 -0.026385248 0.56574994 2.3956542e-39
0.050480999 -0.026392242 0.56589997 2.5800441e-39
0.051750295 -0.0264039 0.56614989 2.6718796e-39
0.053016007 -0.026413232 0.5663501 2.7637179e-39
0.054292183 -0.026427221 0.56665003 3.0395831e-39
0.05556969 -0.026441213 0.56695002 3.2232569e-39
0.056828462 -0.026445877 0.5670501 3.6856714e-39
0.05810817 -0.026459867 0.56735003 3.7778656e-39
0.059383951 -0.026471525 0.56760007 4.0551728e-39
0.06067688 -0.026490182 0.56800002 4.2392039e-39
0.061960667 -0.026504174 0.56830013 4.2384836e-39
0.063262433 -0.026525164 0.56875002 4.2370501e-39
0.064554885 -0.026541486 0.56910008 4.0522987e-39
0.065883532 -0.026571801 0.56975013 4.0526575e-39
0.067215048 -0.026602115 0.57040012 4.05194e-39
0.068525426 -0.026623104 0.57085001 4.05194e-39
0.069837779 -0.02664409 0.57130003 4.1444944e-39
0.071172848 -0.026672849 0.57191676 4.5132713e-39
0.072475836 -0.026688782 0.57225841 4.6054599e-39
0.077304371 -0.027980257 0.59995002 6.4511928e-39
-0.099396668 -0.023730541 0.53405011 1.5612231e-39
-0.098284744 -0.023746092 0.53440011 1.3775521e-39
-0.097198553 -0.02376831 0.53490007 1.3775493e-39
-0.096038334 -0.023772754 0.53500003 1.2857166e-39
-0.094877675 -0.023777198 0.5351001 1.1938825e-39
-0.093690321 -0.023774976 0.53505009 1.1020484e-39
-0.092529103 -0.023779418 0.53515005 1.0102129e-39
-0.091418684 -0.023797192 0.53555 1.102047e-39
-0.090255938 -0.023801636 0.53564996 1.0102101e-39
-0.089109376 -0.023810524 0.53584993 1.102047e-39
-0.087945521 -0.023814967 0.53595006 1.1938811e-39
-0.08680553 -0.023826074 0.53619993 1.1020442e-39
-0.085648432 -0.023832742 0.53635007 1.1938797e-39
-0.084474966 -0.023834962 0.53640014 1.1938797e-39
-0.083293498 -0.023834962 0.53640014 1.3775507e-39
-0.082150303 -0.023846071 0.53665012 1.3775521e-39
-0.081051245 -0.023870509 0.53720009 1.2857166e-39
-0.079927497 -0.023888286 0.53759992 1.3775507e-39
-0.078787319 -0.023901615 0.53790009 1.3775507e-39
-0.077624194 -0.02390828 0.53805 1.3775521e-39
-0.076460429 -0.023914944 0.53820002 1.3775535e-39
-0.075281963 -0.023917168 0.53825009 1.4693918e-39
-0.074117072 -0.023923833 0.53839999 1.4693918e-39
-0.07291764 -0.023919391 0.53829998 1.5612287e-39
-0.071765304 -0.023930497 0.53855002 1.6530642e-39
-0.070670828 -0.023961602 0.53925002 1.8367365e-39
-0.069528192 -0.023977155 0.53960001 1.7448997e-39
-0.068447337 -0.024014926 0.54044992 1.7448997e-39
-0.067375168 -0.024057139 0.54140013 1.7448997e-39
-0.06626825 -0.024088245 0.54210001 1.7448982e-39
-0.065128267 -0.02410824 0.54255003 1.8367337e-39
-0.063992158 -0.024130458 0.54304993 1.8367337e-39
-0.06285388 -0.024152674 0.54355013 1.9285706e-39
-0.061696351 -0.024168225 0.54390007 1.6530628e-39
-0.06053729 -0.024183776 0.54425007 1.7449011e-39
-0.059360337 -0.024192665 0.54445004 1.7449011e-39
-0.05824127 -0.024225989 0.54519993 1.7449011e-39
-0.057092726 -0.024248207 0.54570001 1.653067e-39
-0.055931736 -0.024265978 0.54610002 1.9285734e-39
-0.054829121 -0.024310421 0.54709995 2.0204103e-39
-0.053682901 -0.024337079 0.54769993 2.1122458e-39
-0.052572358 -0.024381515 0.54869998 2.0204075e-39
-0.05142932 -0.024412617 0.54940015 1.9285692e-39
-0.050310623 -0.024457052 0.55039996 1.9285692e-39
-0.049178608 -0.024497043 0.55129993 1.9285678e-39
-0.048042618 -0.024537034 0.5521999 1.9292839e-39
-0.046877228 -0.024563696 0.55280006 2.1133136e-39
-0.045742251 -0.024608131 0.55380023 2.0207593e-39
-0.044582736 -0.024641458 0.55455005 1.928565e-39
-0.04342775 -0.024679229 0.55540001 1.8367309e-39
-0.042253833 -0.024708111 0.55605012 1.8367309e-39
-0.041102879 -0.024752546 0.55705011 1.8367309e-39
-0.039976142 -0.024814755 0.55845004 1.7448954e-39
-0.038822427 -0.024863634 0.55954999 1.7448982e-39
-0.037653781 -0.024905846 0.56049997 1.7448982e-39
-0.036467969 -0.024939174 0.56125009 1.5612287e-39
-0.035260011 -0.024959171 0.56170011 1.6530628e-39
-0.034045834 -0.024976054 0.56208009 1.5612259e-39
-0.032841071 -0.025001386 0.56265014 1.6530642e-39
-0.031635493 -0.025028044 0.56325006 1.837454e-39
-0.030424559 -0.025052484 0.56380004 1.7463346e-39
-0.029226745 -0.025090253 0.56465006 1.7463346e-39
-0.028000394 -0.025105808 0.56499994 1.3789912e-39
-0.026776766 -0.025125358 0.56543988 1.2864382e-39
-0.02558801 -0.025181124 0.56669497 1.4704708e-39
-0.02429235 -0.025132025 0.56558996 1.4708281e-39
-0.023060897 -0.025147628 0.56594115 1.562665e-39
-0.021709803 -0.025027093 0.56322867 1.6541432e-39
-0.019958243 -0.024402304 0.54916781 1.6562885e-39
-0.018712804 -0.02435565 0.54811788 1.8396036e-39
-0.017503358 -0.024352632 0.54805011 2.0243536e-39
-0.016296636 -0.02435324 0.54806376 2.2091078e-39
-0.015078087 -0.024334855 0.54764986 2.8537541e-39
-0.013875643 -0.02434152 0.54779994 3.0388629e-39
-0.012673689 -0.024350408 0.54799998 3.2243331e-39
-0.011472949 -0.024363738 0.54830015 3.6853085e-39
-0.010272759 -0.024381513 0.54870003 3.6856672e-39
-0.0090724584 -0.024403729 0.54919994 3.593117e-39
-0.0078642275 -0.024408173 0.5492999 3.5927569e-39
-0.0066561652 -0.024414839 0.54944986 3.5002039e-39
-0.0054474398 -0.024421504 0.54959995 3.5001983e-39
-0.0042403666 -0.024441499 0.55005002 3.5923926e-39
-0.0030304848 -0.024454832 0.55035001 3.869334e-39
-0.0018184563 -0.024457054 0.55040008 3.870413e-39
-0.00060642743 -0.024468159 0.55065 4.0548028e-39
0.0006064825 -0.024470383 0.55070007 4.1466411e-39
0.0018206034 -0.024485933 0.55105001 4.2384808e-39
0.0030348895 -0.024490379 0.55114996 4.331038e-39
0.0042523155 -0.024510374 0.55159998 4.4232322e-39
0.0054717227 -0.02453037 0.55204999 4.4232336e-39
0.0066919038 -0.024545923 0.55240005 4.5154265e-39
0.007913623 -0.024561476 0.55274999 4.5157852e-39
0.0091443183 -0.024597023 0.55355 4.6079766e-39
0.010370111 -0.024612574 0.55389994 4.5157824e-39
0.011604776 -0.02464368 0.55459994 4.6069018e-39
0.012843671 -0.024677007 0.55535001 4.5150663e-39
0.014074477 -0.024690336 0.55565 4.607262e-39
0.015319 -0.024723664 0.55639994 4.6994562e-39
0.016556414 -0.024741437 0.55680001 4.6990961e-39
0.017795583 -0.024759211 0.55720007 4.6069004e-39
0.01903652 -0.024776984 0.55760014 4.5139887e-39
0.020277405 -0.024792537 0.5579499 4.4217931e-39
0.02151983 -0.02480809 0.55830008 4.3292401e-39
0.0227638 -0.024823641 0.55865008 4.2374074e-39
0.024013598 -0.024843637 0.55910003 4.145216e-39
0.025265381 -0.024863634 0.55955005 4.1444958e-39
0.026526257 -0.024890294 0.56015009 4.0523001e-39
0.027792254 -0.024919178 0.56080002 3.868269e-39
0.029058516 -0.024945838 0.56140006 3.6838791e-39
0.030327428 -0.0249725 0.5620001 3.683519e-39
0.031590559 -0.024992498 0.56245005 3.6838749e-39
0.032884859 -0.025034711 0.56340003 3.5920394e-39
0.034177274 -0.02507248 0.56424999 3.4998438e-39
0.035467159 -0.025105808 0.565 3.4076496e-39
0.036773354 -0.025148019 0.56594998 3.1310641e-39
0.038040064 -0.02516135 0.56624997 3.0388685e-39
0.03930115 -0.025170237 0.56644994 2.8548387e-39
0.04053808 -0.025163572 0.56629997 2.7626445e-39
0.041766945 -0.025152463 0.56604993 2.6704503e-39
0.042987134 -0.025136912 0.56569988 2.3945837e-39
0.044197947 -0.025116915 0.56525004 2.2101938e-39
0.045434915 -0.025112474 0.56515002 2.3023838e-39
0.046675585 -0.02511025 0.56509995 2.2105483e-39
0.047937226 -0.025119137 0.56529999 2.2112658e-39
0.049186695 -0.025121357 0.56534994 2.3952941e-39
0.050463151 -0.025136912 0.56569993 2.5800441e-39
0.051732011 -0.025148019 0.56594998 2.6722397e-39
0.052997284 -0.02515691 0.56615001 2.8566296e-39
0.054268233 -0.025168017 0.56639993 3.0406621e-39
0.055525579 -0.025172457 0.56649995 3.1328592e-39
0.056793392 -0.025181348 0.56669998 3.5016403e-39
0.058082569 -0.025199121 0.56709999 3.6863889e-39
0.059352577 -0.025208008 0.56729996 4.0544525e-39
0.060644835 -0.025225783 0.56770003 4.2392011e-39
0.061944306 -0.025245776 0.56815004 4.146288e-39
0.063245758 -0.025265774 0.56860006 4.2366886e-39
0.064543545 -0.025283549 0.56900007 4.1448503e-39
0.065860413 -0.025307987 0.56955004 4.1444901e-39
0.067191496 -0.025336871 0.57020009 4.1444887e-39
0.068513416 -0.025361311 0.57075 4.2363242e-39
0.069860809 -0.025394123 0.5714885 4.2370417e-39
0.071179941 -0.025415683 0.5719738 4.5136272e-39
0.072443105 -0.025416855 0.57200003 4.6983688e-39
0.07719864 -0.026622351 0.59912956 5.6224901e-39
0.078613944 -0.026654789 0.59985936 5.9916383e-39
-0.099275693 -0.022526804 0.53339994 1.5612217e-39
-0.098165199 -0.022541584 0.53375 1.469389e-39
-0.097053185 -0.022556363 0.53410012 1.3775507e-39
-0.095867775 -0.022554252 0.53405011 1.1938811e-39
-0.094682649 -0.022552138 0.5340001 1.1938825e-39
-0.09355022 -0.022562699 0.53425008 1.102047e-39
-0.092382126 -0.02256481 0.53430009 1.1020484e-39
-0.091282114 -0.022583814 0.53475004 1.1020512e-39
-0.090154819 -0.022596484 0.53505009 1.1020498e-39
-0.089009598 -0.022604931 0.53525007 1.1938867e-39
-0.087838866 -0.02260704 0.53530008 1.1938839e-39
-0.086667925 -0.022609152 0.53535002 1.1938811e-39
-0.085528687 -0.022619708 0.53560007 1.2857166e-39
-0.084356859 -0.022621822 0.53565013 1.2857138e-39
-0.083153747 -0.022615485 0.53550005 1.2857138e-39
-0.081997238 -0.022621822 0.53565001 1.4693876e-39
-0.080862664 -0.022634491 0.53595001 1.2857152e-39
-0.07971935 -0.022645047 0.53620005 1.2857138e-39
-0.078589588 -0.022659827 0.5365501 1.2857152e-39
-0.0774078 -0.022659827 0.53655005 1.3775507e-39
-0.076261505 -0.022670386 0.53680009 1.469389e-39
-0.075107135 -0.022678833 0.53700006 1.4693904e-39
-0.073965654 -0.022691507 0.53730017 1.4693918e-39
-0.072795734 -0.02269573 0.53740007 1.6530628e-39
-0.071638718 -0.02270418 0.53760004 1.5612301e-39
-0.07053978 -0.02273163 0.53825003 1.8367351e-39
-0.069399342 -0.022746414 0.53860009 1.8367351e-39
-0.068327039 -0.022784421 0.5395 1.8367365e-39
-0.067281827 -0.022832992 0.54065001 1.7448968e-39
-0.066146009 -0.022851994 0.54110003 1.8367323e-39
-0.065020226 -0.02287522 0.54165018 1.8367323e-39
-0.06385076 -0.022883669 0.54185009 1.7448982e-39
-0.062663063 -0.022885781 0.54189998 1.9285692e-39
-0.061497845 -0.022896336 0.54214996 1.7448997e-39
-0.06034819 -0.022913229 0.54255003 1.7448982e-39
-0.059191339 -0.022928011 0.54290003 1.7448982e-39
-0.058059663 -0.02295335 0.54350007 1.7448997e-39
-0.056925327 -0.022978686 0.54410011 1.7449025e-39
-0.055767857 -0.02299558 0.54449999 1.8367351e-39
-0.054638714 -0.023025144 0.54519993 2.0204089e-39
-0.053526081 -0.023063151 0.54610002 2.1122444e-39
-0.052419059 -0.023105381 0.54709989 2.0207677e-39
-0.051302947 -0.023145508 0.54805005 1.9285706e-39
-0.050173514 -0.023181409 0.54890013 2.0204061e-39
-0.049053721 -0.023223642 0.54990011 2.0204033e-39
-0.047951274 -0.023276433 0.55115014 2.1129549e-39
-0.0468009 -0.023308106 0.55189991 2.113671e-39
-0.045663774 -0.023348223 0.55285007 2.0211166e-39
-0.044474211 -0.023363005 0.55320007 2.0203991e-39
-0.043314375 -0.023394678 0.55395001 1.9285636e-39
-0.042139847 -0.023420021 0.55455005 1.8367267e-39
-0.040962677 -0.023445358 0.55515009 1.744894e-39
-0.039782863 -0.023470696 0.55574995 1.6530585e-39
-0.038631625 -0.02351504 0.55680007 1.5612259e-39
-0.037502632 -0.023576275 0.55825007 1.6530614e-39
-0.036357503 -0.02363118 0.55955005 1.6530628e-39
-0.035187818 -0.023673413 0.56054997 1.6530614e-39
-0.033977397 -0.023690309 0.56094998 1.5612245e-39
-0.032765206 -0.023707202 0.56135005 1.7448982e-39
-0.031562474 -0.023732547 0.56195003 1.7456157e-39
-0.030343616 -0.023747329 0.56230003 1.6544991e-39
-0.02912581 -0.023764219 0.56270009 1.5623035e-39
-0.027911192 -0.023785334 0.5632 1.3782723e-39
-0.026699105 -0.023810672 0.56380004 1.1938853e-39
-0.025464064 -0.023817005 0.56394994 1.1938853e-39
-0.024219763 -0.023814894 0.56389999 1.2857236e-39
-0.022986606 -0.023824099 0.56411803 1.3775591e-39
-0.021736825 -0.023816142 0.56392962 1.3775605e-39
-0.02045938 -0.023775076 0.56295717 1.4694002e-39
-0.018683175 -0.023111722 0.54725009 1.7470478e-39
-0.017461468 -0.023090111 0.54673833 1.8378155e-39
-0.016252998 -0.023084104 0.54659605 2.300586e-39
-0.01504918 -0.023084266 0.54659998 2.7622788e-39
-0.013854112 -0.023099048 0.54694998 3.4076426e-39
-0.012657501 -0.023113828 0.54730004 3.5005585e-39
-0.011460393 -0.023130724 0.54770005 3.6856672e-39
-0.010262461 -0.023149733 0.54815012 3.6860245e-39
-0.0090617221 -0.023166627 0.54855001 3.5938303e-39
-0.0078606484 -0.023187745 0.54904997 3.5931128e-39
-0.0066525312 -0.023191964 0.54915005 3.4083628e-39
-0.0054449607 -0.023200413 0.54934996 3.5005557e-39
-0.0042395955 -0.023225753 0.54994994 3.5009158e-39
-0.0030299341 -0.023238424 0.55024993 3.7785761e-39
-0.001819117 -0.023253206 0.55060011 3.7789334e-39
-0.00060653762 -0.023259541 0.55075008 3.9629687e-39
0.00060664769 -0.023263764 0.55084997 4.0548056e-39
0.0018212643 -0.023280654 0.5512501 4.2388382e-39
0.0030365416 -0.023289103 0.55145001 4.3313939e-39
0.0042527011 -0.023297548 0.55164999 4.4239497e-39
0.0054756883 -0.023331333 0.55245006 4.5161425e-39
0.0066955364 -0.02334189 0.55270004 4.5161453e-39
0.0079179164 -0.023356671 0.55305004 4.6079752e-39
0.0091467965 -0.02338412 0.55370009 4.6083354e-39
0.010374792 -0.023403127 0.55414999 4.607978e-39
0.011606868 -0.023426354 0.55470002 4.6072606e-39
0.012847142 -0.023460135 0.55549991 4.607262e-39
0.014074477 -0.023466472 0.55565 4.6990961e-39
0.015319 -0.023498146 0.55640012 4.6994548e-39
0.016554929 -0.02351293 0.55675012 4.6069004e-39
0.017786007 -0.023519263 0.55690008 4.6065403e-39
0.019034814 -0.023546712 0.55755007 4.4217931e-39
0.020275589 -0.023561494 0.55790013 4.3292401e-39
0.021515977 -0.023574162 0.5582 4.2374032e-39
0.022761764 -0.023591055 0.55860001 4.2370445e-39
0.024009302 -0.023607949 0.55900002 4.053019e-39
0.02525861 -0.023624841 0.55940008 4.0526589e-39
0.026519153 -0.023650181 0.56000012 3.8689865e-39
0.027787298 -0.023679748 0.56070006 3.7764321e-39
0.029058516 -0.023709314 0.56140006 3.7757118e-39
0.030319337 -0.023728322 0.56185007 3.6835162e-39
0.031576514 -0.023743104 0.56220001 3.5913234e-39
0.03287318 -0.023785334 0.56320012 3.5916779e-39
0.034156077 -0.023814894 0.56390011 3.407288e-39
0.035448335 -0.023848679 0.56469995 3.3154525e-39
0.036721382 -0.023867685 0.56515008 3.2228968e-39
0.037986316 -0.023880353 0.56545001 3.2225367e-39
0.039249115 -0.023890911 0.56569993 3.0392244e-39
0.040477227 -0.023880353 0.56545007 2.9470302e-39
0.041700535 -0.023867683 0.56515008 2.763362e-39
0.042933937 -0.023861349 0.56500006 2.6704461e-39
0.04415885 -0.023850791 0.56475002 2.3942207e-39
0.045398735 -0.023848679 0.56470001 2.3942207e-39
0.046630152 -0.023842346 0.56455004 2.3945795e-39
0.047890592 -0.023850791 0.56475008 2.3030999e-39
0.049147543 -0.023857128 0.56490004 2.3034558e-39
0.050436396 -0.023878243 0.56539994 2.7637137e-39
0.051704597 -0.023888798 0.56564999 2.7647927e-39
0.052978564 -0.02390147 0.56594998 3.0410195e-39
0.054244272 -0.023909915 0.56615001 3.1328564e-39
0.055520676 -0.023922583 0.56645 3.2250506e-39
0.056768339 -0.023922583 0.56645 3.593473e-39
0.058031358 -0.023928918 0.56659997 3.7782244e-39
0.059321187 -0.023945812 0.56700003 3.9626156e-39
0.060618125 -0.023964817 0.56745011 4.1466453e-39
0.061917044 -0.023983821 0.56790006 4.237762e-39
0.063229069 -0.024007047 0.56844997 4.2366844e-39
0.064503819 -0.024015496 0.56865007 4.1448489e-39
0.065854624 -0.024051392 0.56950003 4.2366802e-39
0.067179702 -0.02407673 0.57010013 4.2366774e-39
0.068513416 -0.02410418 0.57074994 4.2366788e-39
0.069831669 -0.0241253 0.57125008 4.2373976e-39
0.071186505 -0.02415809 0.57202631 4.3295933e-39
0.072598569 -0.02420881 0.57322747 4.5136244e-39
0.077132605 -0.025281075 0.59861672 5.2540663e-39
0.078557462 -0.025315348 0.59942853 5.8072373e-39
-0.099164017 -0.021327924 0.53280002 1.7452542e-39
-0.098082438 -0.021347936 0.53329998 1.4693904e-39
-0.0969714 -0.021361949 0.53365004 1.3775521e-39
-0.095822908 -0.021367952 0.53380001 1.285718e-39
-0.094620571 -0.021361949 0.53365004 1.1938839e-39
-0.093445159 -0.021361949 0.53365004 1.1938839e-39
-0.092312969 -0.021371955 0.53390008 1.1938867e-39
-0.091196768 -0.021385964 0.53425008 1.1938881e-39
-0.090045303 -0.021391969 0.53440017 1.1938881e-39
-0.08888489 -0.021395972 0.5345 1.2857236e-39
-0.087699383 -0.02139397 0.53445017 1.2857208e-39
-0.086538419 -0.021397974 0.53454995 1.285718e-39
-0.085376985 -0.021401975 0.53464997 1.2857194e-39
-0.084207252 -0.02140398 0.53470004 1.3775535e-39
-0.083006226 -0.021397974 0.53455007 1.3775521e-39
-0.081844151 -0.021401975 0.53464997 1.469389e-39
-0.080689147 -0.02140798 0.53480005 1.3775535e-39
-0.079533532 -0.021413984 0.53495008 1.3775521e-39
-0.078399174 -0.021425996 0.53525007 1.3775521e-39
-0.077227473 -0.021427995 0.53530014 1.3775535e-39
-0.076091036 -0.021440005 0.53560007 1.4693904e-39
-0.074939311 -0.021448009 0.53580004 1.4693918e-39
-0.073841766 -0.021472026 0.53640002 1.5612287e-39
-0.072680593 -0.021478033 0.5365501 1.6530642e-39
-0.071518801 -0.021484036 0.53670013 1.6530642e-39
-0.070448048 -0.021518063 0.53755009 1.8367351e-39
-0.069341354 -0.021542083 0.53815007 1.9285706e-39
-0.068270043 -0.021578109 0.53904998 1.8367351e-39
-0.067163616 -0.021604128 0.53969991 1.7448968e-39
-0.066023782 -0.021620139 0.54009998 1.7448968e-39
-0.064894184 -0.021640152 0.5406 1.744894e-39
-0.063762374 -0.021660168 0.54110003 1.8367323e-39
-0.062559001 -0.021656163 0.54100001 1.8367323e-39
-0.061395753 -0.021666171 0.54125011 1.8367323e-39
-0.060242526 -0.021680184 0.54160005 1.7448968e-39
-0.059076864 -0.021690194 0.54184997 1.7448997e-39
-0.057968862 -0.021722222 0.54264992 1.7449011e-39
-0.056815475 -0.021738235 0.54305005 1.7449011e-39
-0.055670567 -0.021758249 0.54355007 1.8367379e-39
-0.054543495 -0.021786269 0.54425013 1.9285748e-39
-0.053413354 -0.021814289 0.54495001 2.0204089e-39
-0.0522945 -0.02184831 0.54580003 2.0214865e-39
-0.051171888 -0.021882333 0.54664993 2.0211264e-39
-0.050036393 -0.021912357 0.54739988 2.0204075e-39
-0.048919916 -0.021952391 0.54840004 2.0207649e-39
-0.04783817 -0.022010434 0.54985011 2.2044331e-39
-0.046694912 -0.022042457 0.55065012 2.113315e-39
-0.045577046 -0.022088489 0.55179989 2.0204033e-39
-0.044389792 -0.022102499 0.55214995 2.1122374e-39
-0.043232284 -0.022132521 0.55290002 1.9285636e-39
-0.042056251 -0.022154542 0.55344999 1.8367267e-39
-0.040866751 -0.022170557 0.55385005 1.8367267e-39
-0.039668329 -0.022182565 0.55415004 1.744894e-39
-0.038506743 -0.02221659 0.55500007 1.744894e-39
-0.037351485 -0.022256618 0.55599993 1.65306e-39
-0.036217812 -0.022312656 0.55739993 1.5612273e-39
-0.035059132 -0.022356691 0.55850005 1.7448968e-39
-0.033874415 -0.022386717 0.55925 1.7448968e-39
-0.032683481 -0.022414738 0.55994993 1.6530628e-39
-0.031481039 -0.022436755 0.56050003 1.5615832e-39
-0.030262673 -0.02244876 0.56080002 1.4701078e-39
-0.029048163 -0.022464769 0.56120008 1.4704652e-39
-0.027826944 -0.022476781 0.56150001 1.1938825e-39
-0.026609128 -0.022492792 0.56190008 1.1938839e-39
-0.025382787 -0.022502799 0.56215012 9.1837598e-40
-0.024157483 -0.022514809 0.56245005 1.0102115e-39
-0.022916604 -0.02251281 0.56240004 1.0102115e-39
-0.021659585 -0.022493821 0.56192559 1.1938853e-39
-0.020441225 -0.022515114 0.56245768 1.7449011e-39
-0.018699558 -0.021925569 0.54773009 2.3942235e-39
-0.017456921 -0.021880174 0.54659599 1.9314447e-39
-0.016244194 -0.021868324 0.54629999 2.7608452e-39
-0.015039544 -0.021866325 0.54624993 3.2236128e-39
-0.013845245 -0.021880332 0.54660004 3.5931156e-39
-0.012655188 -0.021904353 0.5471999 3.869341e-39
-0.011457255 -0.021918366 0.54754996 3.961538e-39
-0.010261526 -0.021940384 0.54810005 3.9615352e-39
-0.0090608941 -0.021956395 0.54850006 3.7771454e-39
-0.0078585017 -0.021972409 0.54890001 3.6849497e-39
-0.0066507137 -0.021976409 0.54900008 3.6849483e-39
-0.0054439697 -0.021986416 0.54925001 3.5012745e-39
