# .PCD v0.7 - Point Cloud Data file format
VERSION 0.7
FIELDS x y z rgba
SIZE 4 4 4 4
TYPE F F F U
COUNT 1 1 1 1
WIDTH 113
HEIGHT 1
VIEWPOINT 0 0 0 1 0 0 0
POINTS 113
DATA ascii
-0.14651541 0.024260102 0.7966429 4278190080
-0.13773318 0.027418384 0.7865715 4278190080
-0.1309229 -0.080734134 0.77699995 4278190080
-0.12764743 -0.017912943 0.79935706 4278190080
-0.12016641 -0.065067165 0.77385712 4278190080
-0.12232929 0.070839874 0.78778583 4278190080
-0.11599809 -0.043261323 0.78021437 4278190080
-0.10423578 -0.10198843 0.76950008 4278190080
-0.10396487 -0.08481849 0.76750004 4278190080
-0.1055904 0.058076385 0.77950007 4278190080
-0.098543689 -0.045774855 0.76478577 4278190080
-0.10046726 -0.012320595 0.77971441 4278190080
-0.096379742 -0.07236696 0.76100004 4278190080
-0.097501472 0.014966006 0.76985723 4278190080
-0.096490249 -0.11130369 0.77535713 4278190080
-0.090579525 -0.03851546 0.75457144 4278190080
-0.090390503 -0.015499904 0.76707143 4278190080
-0.089986488 0.0013892797 0.76364285 4278190080
-0.089166641 0.079342686 0.78607148 4278190080
-0.082795337 -0.051110178 0.74435723 4278190080
-0.078463316 0.05634148 0.73450005 4278190080
-0.077824496 0.068528116 0.7438572 4278190080
-0.075271621 -0.018087896 0.73492855 4278190080
-0.069585636 0.034098558 0.74335724 4278190080
-0.068034403 0.057350546 0.72678578 4278190080
-0.067177579 -0.096493594 0.75307143 4278190080
-0.066871747 -0.067984663 0.74964279 4278190080
-0.065605871 -0.080012627 0.75407159 4278190080
-0.062412512 0.0045811986 0.73600006 4278190080
-0.063263528 0.087431841 0.76592982 4278190080
-0.058420498 -0.099025242 0.74714285 4278190080
-0.054457169 0.053393237 0.71664286 4278190080
-0.050101075 -0.11198664 0.74578589 4278190080
-0.049578045 -0.086434886 0.73800004 4278190080
-0.043334339 0.037544835 0.71542865 4278190080
-0.042158782 0.023586605 0.72228575 4278190080
-0.042585853 -0.13723338 0.75821429 4278190080
-0.037992429 -0.04878233 0.73400015 4278190080
-0.03557219 -0.033475835 0.71778578 4278190080
-0.036230598 0.0045505208 0.73107147 4278190080
-0.038906742 0.094804451 0.78507143 4278190080
-0.03266076 -0.14265887 0.76042855 4278190080
-0.027526841 0.015455884 0.71414286 4278190080
-0.024724754 0.0045078387 0.72421426 4278190080
-0.021789337 -0.059999801 0.7327857 4278190080
-0.013307327 -0.011231424 0.71078569 4278190080
-0.010958503 -0.13853914 0.76542848 4278190080
-0.008891847 -0.068182714 0.73400003 4278190080
-0.0076517886 0.10852953 0.77199996 4278190080
-0.0025508327 -0.13974145 0.77207148 4278190080
-0.0024769672 -0.10927393 0.74971431 4278190080
-0.00081590132 0.12210123 0.74085718 4278190080
0.0008379271 -0.12430489 0.76085716 4278190080
0.0043827561 -0.15107189 0.7959286 4278190080
0.0056870817 -0.078277037 0.73771429 4278190080
0.0058599846 0.11690833 0.7601431 4278190080
0.0071179764 -0.057219081 0.71814287 4278190080
0.010000297 -0.018729832 0.69850004 4278190080
0.012323478 -0.08244247 0.74600011 4278190080
0.01431564 -0.13166013 0.76464301 4278190080
0.015548458 0.12410285 0.7430715 4278190080
0.016864663 -0.048464268 0.72921431 4278190080
0.016471496 -0.039490856 0.71221435 4278190080
0.025353907 -0.07389278 0.74264294 4278190080
0.027867062 -0.1320291 0.7667858 4278190080
0.027686525 -0.028752893 0.71828574 4278190080
0.032307945 0.11568893 0.75221431 4278190080
0.032526322 -0.043115653 0.7203573 4278190080
0.035508465 -0.011321718 0.71649998 4278190080
0.040672906 0.10527528 0.78578573 4278190080
0.040726949 -0.085067831 0.75471431 4278190080
0.043235779 -0.13763224 0.76978576 4278190080
0.051382281 0.10584071 0.76485723 4278190080
0.050073076 0.067523114 0.69950008 4278190080
0.05203015 0.016814241 0.70514286 4278190080
0.051724471 0.033699606 0.70100015 4278190080
0.056340612 -0.046009909 0.74142855 4278190080
0.056025811 -0.034385271 0.73728573 4278190080
0.054644935 0.056686014 0.69885719 4278190080
0.059219163 0.10146657 0.75735712 4278190080
0.065846905 -0.1388327 0.77649993 4278190080
0.060559046 0.015455884 0.71414298 4278190080
0.060268305 0.032601196 0.71071434 4278190080
0.064399496 0.0029035006 0.7219286 4278190080
0.068014339 0.014124535 0.72657144 4278190080
0.074056268 -0.11946728 0.77292866 4278190080
0.073469356 -0.028354261 0.74957138 4278190080
0.073091291 -0.015068347 0.74571437 4278190080
0.070567608 0.057114746 0.70414293 4278190080
0.072106652 0.086886108 0.71950006 4278190080
0.073889114 0.10202538 0.73728567 4278190080
0.083552793 -0.12950519 0.78214282 4278190080
0.082278527 -0.1071725 0.77021438 4278190080
0.090774134 -0.11268793 0.78500003 4278190080
0.094916895 -0.072530009 0.76271439 4278190080
0.098623209 -0.091203369 0.77871436 4278190080
0.10175169 0.1039104 0.73914289 4278190080
0.10684635 -0.062549755 0.76392859 4278190080
0.10434876 0.0030005998 0.7460714 4278190080
0.11743637 -0.068874344 0.77835721 4278190080
0.12245293 -0.09192609 0.79992855 4278190080
0.11850267 -0.032229412 0.76314288 4278190080
0.12449189 -0.080395699 0.79049999 4278190080
0.11795628 0.10034692 0.74900007 4278190080
0.12480579 -0.02067196 0.77092856 4278190080
0.12801181 -0.052856211 0.76978582 4278190080
0.12495909 -0.00028802903 0.75142866 4278190080
0.12669639 0.089629062 0.74221426 4278190080
0.13155006 0.019325569 0.74192864 4278190080
0.13948265 0.087198876 0.74942857 4278190080
0.14090599 0.064875349 0.73957145 4278190080
0.14579298 0.073845327 0.74792856 4278190080
0.14739415 0.084649168 0.7561428 4278190080
