# .PCD v0.7 - Point Cloud Data file format
VERSION 0.7
FIELDS x y z rgb
SIZE 4 4 4 4
TYPE F F F F
COUNT 1 1 1 1
WIDTH 964
HEIGHT 1
VIEWPOINT 0 0 0 1 0 0 0
POINTS 964
DATA ascii
-0.13783328 0.0090500657 0.85140014 3.9629659e-39
-0.13820024 0.010954436 0.85366666 3.8704116e-39
-0.1385456 0.012866784 0.85579985 3.8704116e-39
-0.13876146 0.014774743 0.85713333 3.8707703e-39
-0.13890179 0.016679503 0.85800004 4.0548042e-39
-0.13923636 0.01861405 0.86006665 4.0551616e-39
-0.1396357 0.02056724 0.86253351 3.6860217e-39
-0.13992709 0.022513933 0.86433339 3.7782174e-39
-0.14019689 0.024464786 0.866 3.8700585e-39
-0.13743779 -0.057200715 0.86066681 7.1901689e-39
-0.13741647 -0.055296458 0.86053348 6.9128646e-39
-0.13734198 -0.053372093 0.86006671 6.6362749e-39
-0.13731006 -0.051465753 0.85986674 6.7291838e-39
-0.13723555 -0.049544916 0.85940003 6.8210165e-39
-0.13709714 -0.047603954 0.85853332 5.7150374e-39
-0.13704392 -0.045695223 0.85820001 5.8987098e-39
-0.13685228 -0.043743707 0.85700011 5.7146773e-39
-0.13668196 -0.041803978 0.85593337 5.898707e-39
-0.13659678 -0.03989384 0.85539997 5.9905439e-39
-0.13643709 -0.037965309 0.85440004 5.8987098e-39
-0.13603257 -0.035976432 0.85186678 5.8065128e-39
-0.1359261 -0.034073431 0.8512001 5.7146773e-39
-0.13576642 -0.032160763 0.8502 5.6224845e-39
-0.1355854 -0.030247753 0.84906673 5.6221243e-39
-0.13546832 -0.028353097 0.84833348 5.5295672e-39
-0.13530865 -0.026453352 0.84733331 5.4377303e-39
-0.13519152 -0.024565747 0.84660012 4.9771165e-39
-0.13518088 -0.022699248 0.84653348 5.6217656e-39
-0.1348189 -0.020778902 0.84426671 6.0834584e-39
-0.13433984 -0.018852102 0.84126669 6.1756541e-39
-0.13421209 -0.016982973 0.8404668 5.531365e-39
-0.13403112 -0.015111365 0.83933342 5.4391708e-39
-0.13389273 -0.013248965 0.83846676 5.070031e-39
-0.13399917 -0.011411236 0.83913344 4.7930881e-39
-0.13399918 -0.0095629701 0.83913332 4.51686e-39
-0.13445696 -0.0077410624 0.84200007 3.7789362e-39
-0.13474436 -0.0058990661 0.84380001 3.6874581e-39
-0.13494666 -0.0040465873 0.84506679 3.594182e-39
-0.13498923 -0.0021859442 0.84533334 3.4094348e-39
-0.13504247 -0.0003241513 0.84566671 3.5012717e-39
-0.13513829 0.0015395952 0.84626675 3.685663e-39
-0.13545768 0.0034116155 0.84826672 3.7778586e-39
-0.13560672 0.005285806 0.84920007 3.7785775e-39
-0.13575573 0.00716411 0.8501333 3.9626086e-39
-0.13595802 0.0090500657 0.85140014 4.0551616e-39
-0.13629869 0.010952725 0.85353345 3.8707689e-39
-0.13660742 0.012861772 0.8554666 3.8707689e-39
-0.13686292 0.014773594 0.85706675 3.8711304e-39
-0.13705453 0.016684687 0.85826671 3.8707731e-39
-0.13739523 0.018621266 0.86039996 3.7782146e-39
-0.13778912 0.020575188 0.86286682 3.6863833e-39
-0.13807656 0.022522617 0.86466682 3.77786e-39
-0.13842906 0.024489479 0.8668741 3.7778642e-39
-0.13567857 -0.057258319 0.86153346 7.2834393e-39
-0.1355841 -0.055322155 0.86093342 6.9135792e-39
-0.13565759 -0.053454831 0.86140019 6.8206619e-39
-0.13559461 -0.05153358 0.86100018 6.6366294e-39
-0.13543715 -0.049579501 0.86000001 6.7284649e-39
-0.13524814 -0.047618739 0.85879999 5.8068729e-39
-0.13521662 -0.045716513 0.8585999 5.8068729e-39
-0.13498566 -0.043750517 0.85713351 5.8065128e-39
-0.13481769 -0.041810498 0.85606664 5.9905439e-39
-0.1347127 -0.039893832 0.85540003 5.9905453e-39
-0.13458666 -0.037974197 0.85459995 5.8987098e-39
-0.13413523 -0.035970803 0.85173345 5.8065142e-39
-0.13406172 -0.034076102 0.8512668 5.8068715e-39
-0.13388325 -0.032158248 0.85013336 5.6224831e-39
-0.13378878 -0.030264378 0.84953332 5.6217656e-39
-0.13374677 -0.028384294 0.84926671 5.5299273e-39
-0.13351582 -0.026467923 0.84780008 5.438089e-39
-0.13337933 -0.024575418 0.84693342 5.068952e-39
-0.13340029 -0.022713549 0.84706676 5.1611462e-39
-0.13289638 -0.020769058 0.84386671 5.6224789e-39
-0.1325184 -0.018856579 0.84146678 5.9916215e-39
-0.13242386 -0.016991053 0.84086668 5.5317238e-39
-0.13227688 -0.015122169 0.8399334 5.6232005e-39
-0.13210891 -0.013255285 0.83886677 5.0700296e-39
-0.13214041 -0.011410329 0.83906674 4.7008925e-39
-0.13210891 -0.0095599303 0.83886677 4.4246644e-39
-0.13257089 -0.0077392235 0.84179997 3.9633289e-39
-0.13277036 -0.0058939396 0.84306681 3.9636848e-39
-0.13304336 -0.0040453114 0.84480011 3.5023465e-39
-0.13320087 -0.002187151 0.84580004 3.4094348e-39
-0.13325335 -0.00032433018 0.84613335 3.5012717e-39
-0.13332683 0.0015402015 0.84660012 3.6860217e-39
-0.13351582 0.0034097384 0.84780002 3.7778586e-39
-0.13367328 0.0052833166 0.84880006 3.7785775e-39
-0.13378875 0.0071590538 0.84953344 3.9629673e-39
-0.13400923 0.0090451064 0.85093343 3.8714892e-39
-0.13427171 0.010940746 0.85260004 3.6874553e-39
-0.13459717 0.012849745 0.85466665 3.6870965e-39
-0.13491218 0.014766699 0.85666674 3.7789334e-39
-0.13516416 0.016684687 0.85826665 3.5949037e-39
-0.1355316 0.018625593 0.86059988 3.6867378e-39
-0.13592005 0.020579958 0.86306679 3.6860217e-39
-0.13613005 0.022515671 0.86440003 3.6860273e-39
-0.13649751 0.024485504 0.86673337 3.68567e-39
-0.13372406 -0.057233952 0.86116683 7.5589472e-39
-0.13374993 -0.055347864 0.86133343 7.0983292e-39
-0.13386382 -0.053496201 0.86206681 7.0054147e-39
-0.13370854 -0.05153757 0.86106688 6.5447925e-39
-0.13352221 -0.04957182 0.85986668 6.3603984e-39
-0.13334619 -0.047615044 0.8587333 5.7150374e-39
-0.13330476 -0.045709409 0.85846657 5.8065142e-39
-0.13310809 -0.043753911 0.85720003 5.8068701e-39
-0.13294247 -0.041813754 0.85613328 5.8987098e-39
-0.13282861 -0.039893843 0.85539997 5.9905439e-39
-0.13270436 -0.037974201 0.85460001 5.8068743e-39
-0.13232133 -0.035987701 0.85213339 5.8068729e-39
-0.13223849 -0.03408945 0.85159999 5.8068729e-39
-0.13208324 -0.032175895 0.85060006 5.7146787e-39
-0.13193831 -0.030269127 0.84966671 5.6221229e-39
-0.13186583 -0.028382063 0.84920007 5.5292113e-39
-0.13168986 -0.026476251 0.84806669 5.3455375e-39
-0.13163811 -0.024598632 0.84773338 5.1607875e-39
-0.13161741 -0.022727849 0.84759998 4.6076165e-39
-0.13117224 -0.020790385 0.84473336 4.9763962e-39
-0.13088235 -0.018887958 0.84286666 5.5292084e-39
-0.13079956 -0.017020691 0.84233338 5.5310077e-39
-0.13069603 -0.015153377 0.84166676 5.6228432e-39
-0.1305097 -0.013280568 0.84046668 5.0696694e-39
-0.13047868 -0.011426647 0.84026664 4.6086969e-39
-0.13050972 -0.0095781656 0.84046668 4.3317541e-39
-0.13072713 -0.0077398364 0.84186661 4.2395528e-39
-0.13090308 -0.005893474 0.84300011 4.0558776e-39
-0.13112049 -0.0040433956 0.84440017 3.5941848e-39
-0.13131715 -0.0021868062 0.84566671 3.5016305e-39
-0.13137931 -0.00032430462 0.84606677 3.5938261e-39
-0.13138963 0.0015393526 0.84613335 3.6863819e-39
-0.13154492 0.0034070574 0.8471334 3.6860217e-39
-0.13165881 0.005277507 0.84786665 3.594545e-39
-0.13183479 0.0071545597 0.84900004 3.6874553e-39
-0.1319797 0.0090344762 0.84993339 3.8711262e-39
-0.13223852 0.010927915 0.85160005 3.6870951e-39
-0.13263193 0.012841727 0.85413337 3.5949009e-39
-0.13296315 0.014759804 0.85626662 3.5949009e-39
-0.13329445 0.016687278 0.85840005 3.594545e-39
-0.13369818 0.01863425 0.861 3.7785733e-39
-0.1341019 0.020592682 0.86360002 3.6860231e-39
-0.13432965 0.022533037 0.86506665 3.6860259e-39
-0.13457812 0.024483621 0.86666667 3.50092e-39
-0.13192418 -0.055377848 0.86180013 7.1905248e-39
-0.13199563 -0.053508613 0.86226678 6.8213822e-39
-0.13182215 -0.051541556 0.86113346 6.5447925e-39
-0.13158745 -0.049556442 0.85960001 6.4525941e-39
-0.13140373 -0.047596566 0.85840005 5.7153962e-39
-0.13133229 -0.045681007 0.8579334 5.6221243e-39
-0.13118944 -0.043743707 0.85700005 5.7139584e-39
-0.13103636 -0.041807238 0.85600001 5.9898265e-39
-0.13094449 -0.039893843 0.85539997 5.9901838e-39
-0.13087305 -0.037989013 0.85493338 5.9905481e-39
-0.1305465 -0.036015857 0.85280019 5.8987084e-39
-0.13044445 -0.034110799 0.85213339 5.8072331e-39
-0.13025053 -0.032185979 0.85086668 5.8987084e-39
-0.13012809 -0.03028338 0.85006678 5.80651e-39
-0.12995459 -0.028373152 0.8489334 5.437017e-39
-0.1297811 -0.026467923 0.84780008 5.3455361e-39
-0.12962797 -0.024571547 0.84680009 5.3451745e-39
-0.12953614 -0.022690307 0.84620005 4.6076123e-39
-0.12916879 -0.020767415 0.84380001 4.8838432e-39
-0.12893407 -0.018874513 0.84226674 5.4362982e-39
-0.12890345 -0.017015303 0.84206671 5.622846e-39
-0.12883203 -0.015152177 0.84160006 5.6224859e-39
-0.12874018 -0.013288993 0.8409999 5.1615077e-39
-0.12877078 -0.011439337 0.84119993 4.7920105e-39
-0.12880142 -0.0095888022 0.84140003 4.1473628e-39
-0.12896468 -0.007745353 0.84246665 4.1469999e-39
-0.12905654 -0.0058939392 0.84306663 4.1466369e-39
-0.12927082 -0.0040437151 0.84446681 3.5019906e-39
-0.12943409 -0.0021864616 0.84553343 3.593466e-39
-0.12947492 -0.00032420238 0.84580004 3.685663e-39
-0.12952594 0.0015393526 0.84613335 3.6863805e-39
-0.12975049 0.0034089342 0.84760004 3.6863791e-39
-0.12986273 0.0052804118 0.8483333 3.5023493e-39
-0.13002604 0.0071579302 0.8494001 3.5945436e-39
-0.13021992 0.0090422723 0.85066676 3.6870951e-39
-0.1305261 0.010941604 0.85266674 3.5948995e-39
-0.13090368 0.012856761 0.8551333 3.5945408e-39
-0.13128129 0.014782787 0.85760009 3.5027067e-39
-0.13166906 0.016720977 0.86013329 3.409432e-39
-0.13200583 0.018663108 0.86233342 3.3179553e-39
-0.13242429 0.020627651 0.86506671 3.5941848e-39
-0.13258754 0.022560818 0.86613339 3.5938303e-39
-0.13271002 0.024491156 0.86693347 3.4083642e-39
-0.1301467 -0.055429257 0.86260015 7.4667502e-39
-0.13028751 -0.053587213 0.86353338 6.7291908e-39
-0.12997574 -0.051561508 0.86146677 6.6362721e-39
-0.12971419 -0.049564127 0.8597334 6.5440736e-39
-0.12951301 -0.047596563 0.85840005 5.7146759e-39
-0.12936215 -0.045652613 0.8574 5.6224831e-39
-0.12928168 -0.043736894 0.85686672 5.8054366e-39
-0.12916099 -0.041810494 0.85606664 5.8983511e-39
-0.1290604 -0.039893847 0.85539997 5.9905439e-39
-0.12903024 -0.038000863 0.85519993 5.9905481e-39
-0.12882906 -0.036060896 0.85386664 5.990188e-39
-0.12873854 -0.034156162 0.85326672 5.9912642e-39
-0.12855747 -0.032231383 0.85206681 5.9919803e-39
-0.12833618 -0.030302377 0.85060006 5.7150332e-39
-0.12816517 -0.028390976 0.84946674 5.5299287e-39
-0.12798414 -0.026482489 0.84826666 5.4384491e-39
-0.12785338 -0.024588965 0.84740001 5.5299245e-39
-0.1276321 -0.022683162 0.8459335 4.8852726e-39
-0.12730016 -0.020765774 0.84373343 4.791649e-39
-0.12711909 -0.018880486 0.84253335 5.3441025e-39
-0.12709899 -0.017022036 0.84240001 5.5302917e-39
-0.1270185 -0.015156979 0.84186667 5.5302903e-39
-0.12699839 -0.013300585 0.84173334 4.9774752e-39
-0.12699839 -0.011446591 0.84173334 4.7001751e-39
-0.12703863 -0.0095956409 0.84200001 4.1477187e-39
-0.12721969 -0.0077520949 0.84320009 4.0551644e-39
-0.12731022 -0.0058990666 0.84380013 4.0544427e-39
-0.12748119 -0.0040459498 0.84493345 3.3175993e-39
-0.12761198 -0.002187151 0.84580004 3.593466e-39
-0.12772261 -0.0003244835 0.84653342 3.5941848e-39
-0.12781318 0.0015411718 0.8471334 3.6863819e-39
-0.12798412 0.0034116155 0.84826678 3.6867378e-39
-0.12812495 0.0052858065 0.84920007 3.3179567e-39
-0.12819533 0.0071601775 0.84966671 3.2261212e-39
-0.12840658 0.0090465248 0.85106683 3.5023465e-39
-0.1287687 0.01095187 0.85346675 3.5027053e-39
-0.12920123 0.012874803 0.85633343 3.5945394e-39
-0.12963372 0.014810367 0.85919994 3.5019878e-39
-0.13000588 0.016750783 0.8616668 3.317235e-39
-0.13030763 0.018691959 0.86366677 3.4097922e-39
-0.13060941 0.02064196 0.86566669 3.5938261e-39
-0.13068987 0.022562556 0.86620003 3.4101565e-39
-0.13081056 0.024493039 0.86699998 3.2243317e-39
-0.12842518 -0.055506364 0.86380005 7.6507813e-39
-0.12852429 -0.053645138 0.86446667 6.9132233e-39
-0.12823686 -0.05162536 0.86253345 6.4518878e-39
-0.12793951 -0.04961025 0.86053336 6.2674924e-39
-0.12772144 -0.047633525 0.85906672 5.8054366e-39
-0.12755296 -0.045681011 0.85793328 5.8972749e-39
-0.12747368 -0.043764114 0.8574 6.081306e-39
-0.12728533 -0.041813746 0.8561334 6.1742191e-39
-0.12715648 -0.039887622 0.85526669 6.266412e-39
-0.12713665 -0.037997901 0.8551333 6.0823836e-39
-0.12701769 -0.036080614 0.85433334 5.9905467e-39
-0.1269384 -0.034177527 0.85379994 5.9912628e-39
-0.12678975 -0.032259122 0.85280007 5.9916201e-39
-0.12660143 -0.030335631 0.85153347 5.8072289e-39
-0.12639326 -0.028413258 0.85013336 5.6217656e-39
-0.12615541 -0.026490815 0.84853339 5.7146773e-39
-0.12595718 -0.024583159 0.84720004 5.6228376e-39
-0.1257094 -0.022672435 0.84553337 4.8852726e-39
-0.12536247 -0.020752648 0.84319997 4.6998107e-39
-0.12519398 -0.018870028 0.84206671 5.067517e-39
-0.12515432 -0.017009914 0.84180003 5.2529887e-39
-0.1251345 -0.015153378 0.84166676 5.25263e-39
-0.12513448 -0.013299531 0.84166676 4.7923693e-39
-0.12516424 -0.011448404 0.84186673 4.4243056e-39
-0.12524353 -0.009600197 0.84240001 4.0558818e-39
-0.12543185 -0.007756385 0.84366679 3.9626058e-39
-0.12558052 -0.0059051248 0.84466672 3.7778558e-39
-0.12576884 -0.0040507382 0.84593338 3.4094348e-39
-0.12592743 -0.0021902542 0.84700006 3.5016305e-39
-0.12601663 -0.00032489235 0.84760004 3.5945436e-39
-0.12611574 0.0015432338 0.84826672 3.6867406e-39
-0.1262446 0.0034151007 0.84913343 3.5941848e-39
-0.12638338 0.0052912007 0.85006672 3.0417299e-39
-0.12642302 0.0071657952 0.85033333 3.0420886e-39
-0.12660144 0.0090514841 0.85153347 3.2261184e-39
-0.1270276 0.010963847 0.85439998 3.5945394e-39
-0.12748358 0.012891843 0.85746676 3.4101495e-39
-0.12791969 0.014831051 0.86040002 3.3179553e-39
-0.12829635 0.016775403 0.86293334 3.409432e-39
-0.12855403 0.018713605 0.86466676 3.5019864e-39
-0.12879187 0.020656265 0.86626667 3.5023507e-39
-0.12887117 0.022578185 0.86680007 3.5023521e-39
-0.12892872 0.024498317 0.86718696 2.9481036e-39
-0.12658118 -0.055532064 0.86420017 7.8351712e-39
-0.12674719 -0.053698912 0.86533338 6.5437261e-39
-0.12651283 -0.051697183 0.86373341 6.2678553e-39
-0.12617104 -0.049660213 0.86140007 6.1752967e-39
-0.12603432 -0.047711149 0.86046672 5.8057953e-39
-0.12581949 -0.045737803 0.85899997 5.8972763e-39
-0.1256828 -0.043798145 0.85806668 5.9898293e-39
-0.12541915 -0.041820265 0.85626674 6.6355518e-39
-0.12531175 -0.039900057 0.85553342 6.451878e-39
-0.12525316 -0.037997894 0.85513335 6.2671322e-39
-0.12516528 -0.036089059 0.85453326 6.1745793e-39
-0.12502857 -0.03416951 0.85359991 6.0823822e-39
-0.12487233 -0.03224903 0.85253334 5.8987084e-39
-0.12464774 -0.030316629 0.85100001 5.8065114e-39
-0.12448172 -0.028404344 0.84986681 5.8057953e-39
-0.1241888 -0.026470004 0.84786677 5.7143172e-39
-0.12396419 -0.02455801 0.84633338 5.5306448e-39
-0.12372985 -0.022650987 0.84473348 4.9771095e-39
-0.1234076 -0.020736238 0.84253341 4.883839e-39
-0.12329044 -0.018862559 0.84173334 5.1597099e-39
-0.12324162 -0.01700183 0.84140003 5.3451801e-39
-0.12328068 -0.015153378 0.84166664 5.2533432e-39
-0.12325139 -0.01329637 0.84146672 4.4239483e-39
-0.12328067 -0.011445684 0.84166676 4.1477215e-39
-0.12342713 -0.0096032359 0.8426668 3.9636848e-39
-0.12362242 -0.00775945 0.84400004 3.7785719e-39
-0.12378845 -0.0059083868 0.84513348 3.6860189e-39
-0.12398373 -0.0040532923 0.84646672 3.4101537e-39
-0.12416927 -0.0021921506 0.84773344 3.5016305e-39
-0.12426692 -0.00032519895 0.84840006 3.5945436e-39
-0.12442314 0.0015454168 0.84946668 3.686742e-39
-0.12454031 0.0034196591 0.8502667 3.5938261e-39
-0.12462821 0.00529618 0.85086673 3.0413726e-39
-0.12478445 0.0071792793 0.85193348 2.7647871e-39
-0.12497973 0.0090699084 0.85326672 2.8569799e-39
-0.12535079 0.010981811 0.85579997 3.3168791e-39
-0.12581952 0.012914897 0.85900009 3.4090719e-39
-0.12620036 0.014851737 0.8616001 3.1332053e-39
-0.12658116 0.016800029 0.86420006 3.4094292e-39
-0.12675694 0.018729476 0.86540002 3.4101495e-39
-0.12701082 0.020676931 0.86713338 3.5019892e-39
-0.12703036 0.022590339 0.86726671 3.4101565e-39
-0.12498546 -0.053760972 0.86633331 6.6359245e-39
-0.12475464 -0.051757038 0.8647334 6.3596936e-39
-0.12448534 -0.04974477 0.86286676 6.2671392e-39
-0.12428335 -0.047766604 0.86146677 5.8979924e-39
-0.12401406 -0.045769755 0.85960007 5.8976364e-39
-0.12385055 -0.043818556 0.85846674 5.990188e-39
-0.12356201 -0.041830026 0.85646659 6.6366294e-39
-0.12344659 -0.039906278 0.85566676 6.5447897e-39
-0.1233408 -0.037989013 0.85493332 6.3600453e-39
-0.12324462 -0.036077801 0.85426658 6.0827424e-39
-0.12311959 -0.034161501 0.85340005 5.9901866e-39
-0.12302341 -0.032256596 0.85273343 5.8065142e-39
-0.12281179 -0.030326128 0.85126668 5.4377317e-39
-0.12260021 -0.028402116 0.84980011 5.34482e-39
-0.12235014 -0.026476247 0.84806663 5.253702e-39
-0.12210968 -0.024559943 0.84640008 5.1615035e-39
-0.12186924 -0.022650985 0.84473348 5.0693065e-39
-0.12159995 -0.020744443 0.84286678 4.9760347e-39
-0.12144604 -0.018864052 0.84179997 5.0675142e-39
-0.12140756 -0.017004525 0.84153336 5.3451801e-39
-0.12142681 -0.015153378 0.84166676 5.253702e-39
-0.12142681 -0.01329953 0.84166676 4.1473628e-39
-0.12144604 -0.011447498 0.84180003 3.8704172e-39
-0.12158072 -0.0096039958 0.84273344 3.7789362e-39
-0.12178269 -0.0077606756 0.84413344 3.6863763e-39
-0.12188848 -0.0059065232 0.84486669 3.5941834e-39
-0.12211929 -0.0040532919 0.84646678 3.3179553e-39
-0.12224436 -0.0021911163 0.84733337 3.3179581e-39
-0.12239823 -0.00032519901 0.84840012 3.4101537e-39
-0.12253288 0.0015451743 0.84933335 3.5938261e-39
-0.12265791 0.0034193911 0.85020006 3.2254051e-39
-0.12282143 0.0052990853 0.85133344 2.5800371e-39
-0.12300418 0.0071848971 0.85260004 2.5793168e-39
-0.12318691 0.0090762861 0.8538667 2.4871212e-39
-0.12351392 0.010986089 0.85613334 3.3172364e-39
-0.12398519 0.012920911 0.85940003 3.4094278e-39
-0.1243026 0.014851737 0.86160016 3.1324864e-39
-0.12461036 0.016790956 0.86373341 3.3172364e-39
-0.12477387 0.018717933 0.86486661 3.3175965e-39
-0.12495662 0.02065309 0.86613333 3.3172434e-39
-0.12497585 0.022564294 0.86626667 3.225768e-39
-0.1231057 -0.053773385 0.86653334 6.5440891e-39
-0.12299205 -0.051816892 0.86573333 6.1760212e-39
-0.1226795 -0.049783204 0.86353344 6.1749408e-39
-0.12252796 -0.047822054 0.86246675 5.7139598e-39
-0.12220595 -0.045801703 0.86020005 5.805445e-39
-0.12203547 -0.043845788 0.85900003 6.1752981e-39
-0.12170398 -0.041839797 0.85666662 6.7284663e-39
-0.12152401 -0.039893847 0.85540009 6.6369867e-39
-0.12143878 -0.037983086 0.85480005 6.5440764e-39
-0.12136302 -0.036077801 0.85426658 6.267491e-39
-0.12120201 -0.034150828 0.85313338 5.9898265e-39
-0.1211452 -0.0322566 0.85273343 5.7143186e-39
-0.12092736 -0.030323753 0.85120004 5.3455361e-39
-0.12072846 -0.028402114 0.84980011 5.2522642e-39
-0.12055797 -0.026492896 0.84859997 5.0693107e-39
-0.12031174 -0.024573483 0.84686673 5.0693093e-39
-0.12006547 -0.022661712 0.84513348 5.1615007e-39
-0.11990447 -0.020772336 0.84400004 5.1615021e-39
-0.11963928 -0.018871523 0.8421334 5.1615063e-39
-0.11962981 -0.017015299 0.84206671 5.2540593e-39
-0.11960138 -0.015156979 0.84186667 5.2540565e-39
-0.11961087 -0.013303744 0.84193337 3.7792936e-39
-0.11965822 -0.011453844 0.84226674 3.4105166e-39
-0.11982871 -0.0096123535 0.8434667 3.5949023e-39
-0.11996129 -0.0077631273 0.84440011 3.503064e-39
-0.12010336 -0.0059102522 0.84540004 3.5945394e-39
-0.12019808 -0.0040513771 0.84606671 3.4101495e-39
-0.12033068 -0.0021902544 0.84700012 3.4101509e-39
-0.12052957 -0.00032519901 0.8484 3.4105124e-39
-0.12077581 0.0015466295 0.85013336 3.5016305e-39
-0.12091789 0.0034231443 0.85113341 3.2254037e-39
-0.12109782 0.0053057251 0.85240006 2.4878415e-39
-0.1213346 0.0071972557 0.85406673 2.3956458e-39
-0.12154298 0.0090940017 0.8555333 2.4871226e-39
-0.12181762 0.011003197 0.8574667 3.3175979e-39
-0.12216806 0.01292893 0.85993332 3.3168735e-39
-0.12240484 0.014851737 0.86160016 3.224682e-39
-0.12262268 0.016779292 0.86313337 3.4090733e-39
-0.12280262 0.018707836 0.86440003 3.3175979e-39
-0.12292576 0.020632422 0.86526674 3.2250506e-39
-0.12293522 0.022539983 0.86533338 3.2250506e-39
-0.12157065 -0.053939126 0.86920422 6.7284775e-39
-0.12141155 -0.051956546 0.86806667 6.4518892e-39
-0.12105722 -0.049898509 0.86553329 6.5437219e-39
-0.12086141 -0.047914471 0.86413342 5.8979924e-39
-0.12055372 -0.045893993 0.86193335 5.8972805e-39
-0.12037655 -0.043930855 0.86066681 6.4511647e-39
-0.12001292 -0.041908178 0.85806674 6.5444352e-39
-0.11972384 -0.039921824 0.85599995 6.5444338e-39
-0.11955602 -0.037983086 0.85480011 6.5444366e-39
-0.11944412 -0.036066536 0.85400009 6.2678511e-39
-0.1192856 -0.034140155 0.85286683 5.6217642e-39
-0.11927628 -0.032259118 0.85280013 5.2533432e-39
-0.11903384 -0.030319007 0.85106677 5.3451773e-39
-0.11885671 -0.028402116 0.84980011 5.2529789e-39
-0.11864223 -0.026482493 0.84826672 5.068952e-39
-0.11844643 -0.024573483 0.84686673 5.1611476e-39
-0.11820401 -0.022661712 0.84513348 5.1618623e-39
-0.11805482 -0.020773979 0.84406662 5.2540551e-39
-0.11777509 -0.018870028 0.84206676 5.2536992e-39
-0.11774711 -0.017011259 0.84186667 5.0700268e-39
-0.11774711 -0.015156978 0.84186661 5.0703855e-39
-0.11769117 -0.013296369 0.84146672 3.6870965e-39
-0.11778441 -0.011452031 0.8421334 3.1339297e-39
-0.11796156 -0.0096115945 0.84340006 3.410511e-39
-0.11810145 -0.0077631269 0.84440011 3.4105096e-39
-0.11825995 -0.0059111845 0.84553343 3.410511e-39
-0.11836252 -0.0040523345 0.84626669 3.4101509e-39
-0.11847439 -0.0021904267 0.84706676 3.5023451e-39
-0.11870752 -0.00032532681 0.84873337 3.5023479e-39
-0.11891264 0.0015467509 0.8502 3.4101565e-39
-0.11909912 0.0034247532 0.85153335 3.1332109e-39
-0.11930425 0.0053094593 0.85299999 2.7640668e-39
-0.11958398 0.0072051208 0.8549999 2.7644256e-39
-0.1198171 0.0091060493 0.85666668 2.5800343e-39
-0.12005951 0.011015175 0.85839999 3.2253981e-39
-0.12031129 0.012932939 0.86020005 3.3172322e-39
-0.12052574 0.014854035 0.8617335 3.2250422e-39
-0.12065627 0.016770219 0.86266673 3.5016277e-39
-0.12074954 0.018684747 0.86333346 3.409432e-39
-0.12085211 0.020603806 0.86406672 3.1332137e-39
-0.12080548 0.022498308 0.86373329 3.1332151e-39
-0.11970454 -0.053960931 0.86955559 6.8210305e-39
-0.11959134 -0.051996451 0.86873329 6.5444422e-39
-0.11926094 -0.049944628 0.86633337 6.7288292e-39
-0.1190774 -0.04796252 0.86500001 5.8987098e-39
-0.11881126 -0.045954343 0.86306667 5.6214139e-39
-0.11866441 -0.043998912 0.86200005 5.8979966e-39
-0.11831567 -0.041976552 0.85946673 6.3593278e-39
-0.11783843 -0.039921828 0.85600007 6.5433604e-39
-0.11766406 -0.037980128 0.85473341 6.4522423e-39
-0.11751723 -0.036052458 0.85366666 6.0831011e-39
-0.1173704 -0.034129485 0.8526001 5.2529831e-39
-0.11735204 -0.032246511 0.8524667 5.0693135e-39
-0.11715012 -0.030316629 0.85100007 5.2533404e-39
-0.11703084 -0.028413257 0.85013336 5.0693051e-39
-0.11685645 -0.026501222 0.84886676 4.7930825e-39
-0.11660865 -0.024579285 0.84706676 4.608334e-39
-0.11646184 -0.022684945 0.84600002 4.7927196e-39
-0.11630582 -0.020793669 0.84486681 4.9767507e-39
-0.11606718 -0.018893933 0.84313339 5.1615021e-39
-0.11592034 -0.017015304 0.84206676 4.9771137e-39
-0.11588364 -0.015155776 0.84179997 4.885997e-39
-0.11581023 -0.013293209 0.84126669 3.5949009e-39
-0.11589281 -0.011448404 0.84186667 3.1332109e-39
-0.11603966 -0.0096062766 0.84293342 3.4105096e-39
-0.11617733 -0.0077588367 0.8439334 3.4101495e-39
-0.11635169 -0.0059088538 0.84520012 3.3179553e-39
-0.11648936 -0.0040520155 0.84620005 3.3179525e-39
-0.11659029 -0.0021900821 0.84693342 3.3175965e-39
-0.11683811 -0.00032532678 0.84873337 3.2254037e-39
-0.11702166 0.0015465082 0.85006672 3.1328507e-39
-0.11721437 0.003424485 0.85146672 2.856624e-39
-0.11745299 0.0053107045 0.85320002 2.7644256e-39
-0.11771914 0.0072062449 0.85513341 2.764427e-39
-0.1179394 0.0091067581 0.85673338 2.4878415e-39
-0.11811377 0.011010041 0.85799998 3.1324878e-39
-0.11832485 0.012922916 0.85953331 3.3168749e-39
-0.11850838 0.014839096 0.86086679 3.1332039e-39
-0.1186277 0.016752081 0.86173344 3.4094334e-39
-0.11864606 0.018653005 0.86186677 3.3172392e-39
-0.11870112 0.020560885 0.86226678 3.2250478e-39
-0.11865522 0.022451423 0.86193341 2.9488224e-39
-0.11778622 -0.052044332 0.86953336 6.7284705e-39
-0.11743404 -0.049979217 0.86693341 6.8210235e-39
-0.11725344 -0.047995791 0.86559999 5.8994259e-39
-0.11704572 -0.046007581 0.86406684 5.4377415e-39
-0.11679287 -0.044009123 0.86220002 5.7139654e-39
-0.11648581 -0.04199934 0.85993344 6.2667707e-39
-0.11593496 -0.039915614 0.85586673 6.3600411e-39
-0.11570015 -0.037953462 0.85413331 6.4518808e-39
-0.11555567 -0.036027115 0.85306674 5.9909069e-39
-0.11536603 -0.034092117 0.85166669 5.0689534e-39
-0.11538409 -0.032221291 0.85180002 5.0689534e-39
-0.11518541 -0.030292878 0.85033333 5.1615049e-39
-0.115068 -0.028390978 0.84946668 5.068945e-39
-0.11489644 -0.026480412 0.84820008 4.6090514e-39
-0.1147339 -0.024577351 0.84700006 4.5157782e-39
-0.11461649 -0.022688521 0.84613335 4.7001652e-39
-0.11446297 -0.020796951 0.84500015 4.8845551e-39
-0.11420108 -0.018892439 0.84306675 4.8852754e-39
-0.11407465 -0.017016649 0.8421334 4.4246616e-39
-0.11401144 -0.015153375 0.84166658 4.3324673e-39
-0.1139121 -0.013287943 0.84093338 3.8704088e-39
-0.11402047 -0.011446591 0.84173334 3.5949009e-39
-0.11412884 -0.0096017169 0.84253329 3.5027053e-39
-0.11421914 -0.0077520949 0.84320003 3.2254023e-39
-0.11439975 -0.005904193 0.84453338 3.1339227e-39
-0.11458036 -0.0040504183 0.84586674 3.1339213e-39
-0.11472487 -0.0021900823 0.84693336 3.1335626e-39
-0.11494158 -0.00032525012 0.84853345 3.1332053e-39
-0.11513122 0.0015462657 0.84993339 2.9484595e-39
-0.1153299 0.0034242168 0.85140008 2.9484595e-39
-0.11551051 0.0053077997 0.85273343 2.6725887e-39
-0.11582658 0.0072056823 0.85506666 2.5800371e-39
-0.11601625 0.009103924 0.85646671 2.2108944e-39
-0.11616074 0.011004052 0.8575334 2.948098e-39
-0.11628714 0.012906877 0.85846668 3.2250394e-39
-0.11649486 0.014824156 0.85999995 3.2250422e-39
-0.1165671 0.016728748 0.86053342 3.3168805e-39
-0.11665739 0.018638577 0.86120009 3.1332081e-39
-0.11666644 0.020537041 0.86126673 2.9484581e-39
-0.1166574 0.02243232 0.86120003 2.9484609e-39
-0.11571887 -0.051975999 0.86839163 6.6366336e-39
-0.11550678 -0.049971532 0.86680001 6.7288264e-39
-0.11536463 -0.048003182 0.86573339 5.7153934e-39
-0.11516031 -0.046014681 0.86420017 5.6217684e-39
-0.11487602 -0.044002313 0.86206669 5.6217684e-39
-0.11454734 -0.041983064 0.85959995 6.0823808e-39
-0.11396099 -0.039884515 0.85520005 6.1756513e-39
-0.11376557 -0.037935689 0.8537333 6.2674881e-39
-0.11362342 -0.036010224 0.85266668 5.9909069e-39
-0.11342797 -0.034073427 0.8512001 5.2540621e-39
-0.11338354 -0.032185979 0.85086673 5.1611504e-39
-0.11321476 -0.030266754 0.84960002 5.2526258e-39
-0.1130904 -0.028364241 0.84866661 4.8845579e-39
-0.11301045 -0.026476247 0.84806669 4.608334e-39
-0.11285054 -0.024573484 0.84686673 4.4243028e-39
-0.1127528 -0.022688521 0.84613335 4.700168e-39
-0.1126373 -0.020803511 0.84526676 4.8852768e-39
-0.11240635 -0.018902894 0.84353334 4.8849194e-39
-0.11225533 -0.017022038 0.84240001 4.3317527e-39
-0.11219314 -0.015158177 0.84193331 3.9629715e-39
-0.11208653 -0.013291103 0.84113336 3.8707717e-39
-0.11216649 -0.011446591 0.84173334 3.7792907e-39
-0.11223756 -0.009598678 0.84226662 3.4108698e-39
-0.11233528 -0.007750256 0.84300005 3.1332067e-39
-0.11246853 -0.0059004645 0.84399998 3.0413698e-39
-0.11265507 -0.004048184 0.84539998 3.1321277e-39
-0.11284164 -0.002189737 0.84680009 3.0402922e-39
-0.11305486 -0.00032519901 0.84840006 2.948098e-39
-0.11320587 0.001545538 0.84953344 2.7637109e-39
-0.11342797 0.0034234123 0.85120004 2.5800385e-39
-0.11365007 0.0053086295 0.85286677 2.579677e-39
-0.1139077 0.007203436 0.85480005 2.3952871e-39
-0.11409425 0.0091010891 0.85620004 2.0261501e-39
-0.11419196 0.010996354 0.85693341 3.0399363e-39
-0.1142808 0.012893847 0.85759997 3.3168763e-39
-0.11448514 0.014809218 0.8591333 3.2250436e-39
-0.11455622 0.016711902 0.85966665 3.3165189e-39
-0.11463618 0.018618381 0.86026669 3.1332081e-39
-0.11459175 0.020505244 0.85993332 3.0406523e-39
-0.11456688 0.022394462 0.85974681 2.9484609e-39
-0.11370242 -0.051928617 0.86760008 6.6362763e-39
-0.11351894 -0.049936939 0.86620015 6.4525997e-39
-0.11337042 -0.047966219 0.86506677 5.8072303e-39
-0.11316073 -0.045975633 0.86346662 5.6224831e-39
-0.11295104 -0.04399211 0.86186677 5.1607861e-39
-0.11265398 -0.041983068 0.85960001 5.898707e-39
-0.11205113 -0.039875194 0.85500008 5.8990658e-39
-0.11182399 -0.03791495 0.85326672 5.8068729e-39
-0.11167546 -0.035987698 0.85213339 5.6224859e-39
-0.11149196 -0.034054756 0.85073346 5.1615105e-39
-0.11138713 -0.032150675 0.84993339 5.1611518e-39
-0.11123861 -0.030238254 0.84880006 5.1607903e-39
-0.11114251 -0.028344188 0.84806669 4.6998135e-39
-0.11111629 -0.026470004 0.84786671 4.4235868e-39
-0.11098523 -0.024573484 0.84686673 4.2395542e-39
-0.11092407 -0.022695674 0.84640002 4.4232238e-39
-0.11078426 -0.020805154 0.84533346 4.5154195e-39
-0.11070563 -0.018929783 0.84473348 4.3313911e-39
-0.1105746 -0.017048977 0.84373343 3.594552e-39
-0.11042606 -0.015170183 0.84259999 3.5938317e-39
-0.11028627 -0.013297423 0.84153336 3.6856616e-39
-0.11035618 -0.011451123 0.84206671 3.5019878e-39
-0.11034744 -0.0095956381 0.84200007 3.0413712e-39
-0.11041732 -0.0077459654 0.84253329 2.5800371e-39
-0.11055711 -0.0058976682 0.84359998 2.4882002e-39
-0.11070564 -0.0040449924 0.84473348 2.3945654e-39
-0.11095028 -0.0021892199 0.84660012 2.4864023e-39
-0.11115999 -0.00032512232 0.84820002 2.5789581e-39
-0.11137839 0.0015461444 0.84986675 2.6715139e-39
-0.11156187 0.0034236806 0.85126668 2.5796784e-39
-0.11178903 0.0053094593 0.85300004 2.5796756e-39
-0.11205113 0.0072051212 0.85500008 2.3027341e-39
-0.11222589 0.0091025066 0.85633343 2.2101798e-39
-0.11229577 0.010995498 0.85686672 3.1324906e-39
-0.11237441 0.012891843 0.8574667 3.3168763e-39
-0.11254039 0.014802324 0.85873336 3.3165189e-39
-0.11258408 0.01670024 0.85906672 3.2250436e-39
-0.11268893 0.018609721 0.85986674 3.2246834e-39
-0.1126103 0.020489346 0.8592667 3.041011e-39
-0.11251419 0.022362858 0.85853344 3.0406551e-39
-0.11147823 -0.053688731 0.86516935 6.7281146e-39
-0.11160247 -0.051840827 0.86613339 6.7284677e-39
-0.11143927 -0.049860071 0.86486679 6.3607614e-39
-0.11135336 -0.047918156 0.86420017 6.1763687e-39
-0.1110613 -0.04589399 0.86193341 5.6228404e-39
-0.11083796 -0.043907039 0.86020005 4.9767535e-39
-0.11058883 -0.041917939 0.85826665 5.4380904e-39
-0.11007345 -0.039840989 0.85426658 5.5302846e-39
-0.10987587 -0.037891254 0.85273337 5.0689548e-39
-0.1097642 -0.035976436 0.85186672 5.1611462e-39
-0.10959239 -0.034046751 0.85053343 4.9771179e-39
-0.10951507 -0.032150675 0.84993339 5.0689548e-39
-0.10935185 -0.030233501 0.84866661 4.9767605e-39
-0.10924878 -0.028337503 0.84786671 4.3313897e-39
-0.10924878 -0.026470006 0.84786671 4.0548056e-39
-0.10912852 -0.024575416 0.84693336 3.8707731e-39
-0.1090598 -0.022695674 0.84640002 4.1466369e-39
-0.10900828 -0.020821562 0.84600002 4.3306695e-39
-0.10885365 -0.018931277 0.84480011 4.0544469e-39
-0.10878492 -0.017059755 0.84426677 3.594552e-39
-0.10857876 -0.015171383 0.84266669 3.5941918e-39
-0.10844132 -0.013298477 0.8416 3.7782174e-39
-0.10857876 -0.011459283 0.84266675 3.409795e-39
-0.10862172 -0.0096070357 0.84299999 3.0413712e-39
-0.10867325 -0.0077539333 0.84340006 2.5796784e-39
-0.10871621 -0.0058986004 0.84373337 2.3952885e-39
-0.10890519 -0.0040472266 0.8452 2.3945668e-39
-0.10918865 -0.0021912891 0.84740007 2.4867625e-39
-0.10937764 -0.00032537789 0.84886676 2.5785994e-39
-0.10951507 0.0015462657 0.84993345 2.6715139e-39
-0.10972125 0.0034247532 0.85153329 2.5793196e-39
-0.10998753 0.0053131944 0.85360008 2.4878401e-39
-0.11022805 0.0072090537 0.85546672 2.4867625e-39
-0.11039126 0.0091067581 0.85673338 2.3956472e-39
-0.11047716 0.011002341 0.8574 2.856624e-39
-0.11056306 0.012900864 0.85806668 3.1328479e-39
-0.11076923 0.014818412 0.85966665 3.1328479e-39
-0.11080359 0.016717086 0.85993344 3.2254009e-39
-0.11086372 0.018621264 0.86040002 3.2250422e-39
-0.11087231 0.020517958 0.86046666 3.0406509e-39
-0.11089809 0.022418426 0.86066663 3.0410138e-39
-0.10931599 -0.053562988 0.86314303 6.635563e-39
-0.10939922 -0.051701169 0.86380011 6.6362749e-39
-0.10927258 -0.049740922 0.8628 6.5444352e-39
-0.1092388 -0.047825746 0.86253339 5.898707e-39
-0.10897706 -0.045815904 0.86046678 5.6221215e-39
-0.10878287 -0.043842386 0.85893333 5.0689478e-39
-0.10851268 -0.041846309 0.85680008 5.1615035e-39
-0.10809052 -0.03980368 0.85346675 5.253339e-39
-0.1079301 -0.03786755 0.85219997 4.8842048e-39
-0.10782035 -0.035953917 0.85133344 4.9760403e-39
-0.10762615 -0.034017395 0.84980005 4.9763976e-39
-0.10759237 -0.032135542 0.84953338 4.9771193e-39
-0.10738973 -0.030207379 0.84793341 4.8849236e-39
-0.10738973 -0.028339732 0.84793335 4.6076193e-39
-0.10732219 -0.026455434 0.84740001 4.239913e-39
-0.10722088 -0.024565747 0.84660012 4.1466397e-39
-0.10712799 -0.022681374 0.84586674 4.0544427e-39
-0.10712799 -0.02081828 0.84586674 4.3299492e-39
-0.10703512 -0.018938746 0.84513342 4.0548042e-39
-0.10695069 -0.0170638 0.84446681 3.7782174e-39
-0.10678181 -0.015179783 0.84313351 3.8700543e-39
-0.10665519 -0.013306906 0.84213334 3.9618883e-39
-0.10678182 -0.01146563 0.84313339 3.6860189e-39
-0.10680715 -0.0096108336 0.8433333 3.2250422e-39
-0.1068156 -0.0077539333 0.8434 2.6718712e-39
-0.10681559 -0.0058962693 0.84340006 2.3952843e-39
-0.10704356 -0.0040472266 0.8452 2.394564e-39
-0.10735597 -0.0021919783 0.84766674 2.4871184e-39
-0.10757548 -0.00032558234 0.84940016 2.5796728e-39
-0.10765146 0.001546387 0.85000008 2.6715083e-39
-0.10787944 0.0034258259 0.85180002 2.6715111e-39
-0.10812428 0.0053140242 0.8537333 2.5789567e-39
-0.10836072 0.0072101774 0.8556 2.5793154e-39
-0.10851268 0.0091074668 0.85680008 2.4874841e-39
-0.10863934 0.011007476 0.85780013 2.9481008e-39
-0.10869 0.012902869 0.85820007 3.0406509e-39
-0.10893484 0.014826455 0.86013341 3.3172392e-39
-0.10899395 0.016730048 0.86060011 3.2254009e-39
-0.10906149 0.018637134 0.86113334 3.2254023e-39
-0.10912905 0.020546578 0.86166668 3.2253995e-39
-0.10917971 0.022454895 0.86206681 2.9491798e-39
-0.10920503 0.024359316 0.86226672 2.578591e-39
-0.10721455 -0.053463109 0.86153334 6.5437275e-39
-0.10728092 -0.05159742 0.86206663 6.5440778e-39
-0.10725603 -0.049687121 0.86186677 6.3596852e-39
-0.10728921 -0.04780357 0.86213344 5.1618637e-39
-0.10699883 -0.045780402 0.85979998 4.7930825e-39
-0.10682461 -0.043815158 0.85839999 4.7927252e-39
-0.10656741 -0.041823514 0.85633343 4.8852782e-39
-0.10623556 -0.039813004 0.85366672 4.9774724e-39
-0.10605306 -0.037867557 0.85220009 4.8845607e-39
-0.1059701 -0.035962358 0.85153335 4.7927224e-39
-0.10577928 -0.034025408 0.85000008 4.7923637e-39
-0.10571291 -0.032133024 0.84946668 4.976399e-39
-0.10555527 -0.030216878 0.84819996 4.8842062e-39
-0.10553868 -0.028344186 0.84806657 4.5161411e-39
-0.10545571 -0.026455434 0.84740007 4.4239427e-39
-0.10536445 -0.024567684 0.84666669 4.2388312e-39
-0.10526489 -0.022681369 0.84586662 4.0544441e-39
-0.1052151 -0.020808436 0.84546679 4.0540826e-39
-0.10518192 -0.018940236 0.84520018 4.0544413e-39
-0.10509895 -0.017065145 0.84453338 3.9626044e-39
-0.1049745 -0.015186984 0.8435334 3.9622457e-39
-0.10484176 -0.013312172 0.84246671 3.9622457e-39
-0.1049662 -0.011470164 0.8434667 3.7785719e-39
-0.1049911 -0.0096146334 0.84366673 3.6860203e-39
-0.10505746 -0.0077612889 0.84420013 2.7644242e-39
-0.10503258 -0.005900464 0.84400004 2.4878373e-39
-0.10520681 -0.0040481845 0.84539998 2.3949242e-39
-0.10551379 -0.0021924952 0.84786671 2.5789539e-39
-0.1057378 -0.00032568455 0.84966677 2.5796714e-39
-0.10579588 0.0015466295 0.85013336 2.6715083e-39
-0.10601158 0.0034260938 0.85186672 2.6715083e-39
-0.1061858 0.0053111189 0.85326666 2.5789567e-39
-0.10642637 0.0072068064 0.85520005 2.5789567e-39
-0.1066172 0.009106759 0.85673344 2.5793182e-39
-0.10671676 0.011004054 0.8575334 2.6725929e-39
-0.10679141 0.012901866 0.85813344 2.9484567e-39
-0.10703202 0.014825308 0.86006671 3.1332067e-39
-0.10714817 0.016737821 0.86100006 3.2250436e-39
-0.10734729 0.018668883 0.86260009 3.0413712e-39
-0.10745515 0.020589497 0.86346668 3.0406509e-39
-0.10753812 0.022508727 0.86413348 2.9488182e-39
-0.10751323 0.0244064 0.86393344 2.7629808e-39
-0.10520285 -0.053405184 0.86060005 6.4515361e-39
-0.10530064 -0.051557519 0.86140001 6.3593335e-39
-0.10529249 -0.049656369 0.86133349 6.2667749e-39
-0.10530064 -0.047762908 0.86140019 5.4377317e-39
-0.10504801 -0.045755554 0.85933328 5.2536964e-39
-0.10481981 -0.043767523 0.85746658 5.0696652e-39
-0.10455903 -0.041774686 0.85533345 4.7008855e-39
-0.10431456 -0.039797459 0.85333347 4.884918e-39
-0.10412712 -0.037849784 0.85180008 4.8859928e-39
-0.10401301 -0.035934206 0.85086668 4.8856327e-39
-0.10389078 -0.034020066 0.84986675 4.7916448e-39
-0.10384187 -0.032133024 0.84946668 4.7001723e-39
-0.10367887 -0.030214507 0.84813344 4.6079794e-39
-0.10358109 -0.028319679 0.84733337 4.5161397e-39
-0.10355663 -0.02644711 0.84713346 4.5161369e-39
-0.10349144 -0.024565749 0.8466 4.1469971e-39
-0.10336919 -0.022674223 0.84560013 4.054084e-39
-0.10332844 -0.020803511 0.84526676 4.0540812e-39
-0.10328769 -0.018934263 0.84493345 3.9626044e-39
-0.1032225 -0.017062448 0.84440011 4.0547986e-39
-0.1031573 -0.015192985 0.84386677 4.0540812e-39
-0.10310843 -0.013327972 0.84346676 3.87005e-39
-0.1032388 -0.011484669 0.8445335 3.8704074e-39
-0.10327955 -0.0096283099 0.84486669 3.6860203e-39
-0.10334475 -0.007772319 0.84540004 2.8562597e-39
-0.1033692 -0.0059116506 0.84560001 2.4878373e-39
-0.10348329 -0.0040536113 0.84653342 2.3945654e-39
-0.10371963 -0.0021940467 0.84846675 2.5789539e-39
-0.10389078 -0.00032576121 0.84986675 2.5796714e-39
-0.10396412 0.001547236 0.85046673 2.7633438e-39
-0.10415157 0.0034266303 0.85200006 2.6715083e-39
-0.10426567 0.0053090444 0.85293335 2.5789553e-39
-0.10451012 0.0072045596 0.85493338 2.579314e-39
-0.10468944 0.0091032144 0.85640007 2.5793182e-39
-0.10484429 0.011005764 0.85766679 2.4878415e-39
-0.10492577 0.012904873 0.85833341 2.579677e-39
-0.1051784 0.014831052 0.86040002 2.9484595e-39
-0.10525174 0.016737821 0.86100006 3.1321319e-39
-0.10552068 0.018681861 0.86320013 2.8566212e-39
-0.10560219 0.020599036 0.86386669 2.7640654e-39
-0.10567554 0.022517407 0.86446661 2.8562611e-39
-0.10336331 -0.053434148 0.8610667 5.9909195e-39
-0.10343534 -0.051573481 0.86166674 5.8987168e-39
-0.10340333 -0.049660213 0.86140019 5.8983539e-39
-0.10332331 -0.047725938 0.86073339 5.7146731e-39
-0.10304321 -0.045705855 0.85839999 5.4384463e-39
-0.10285114 -0.043733492 0.85680002 5.3466109e-39
-0.10255504 -0.04172584 0.85433334 4.4243e-39
-0.10236298 -0.039769478 0.85273343 4.7005282e-39
-0.10221895 -0.037837937 0.85153335 4.8859928e-39
-0.10209088 -0.035917323 0.85046673 4.701603e-39
-0.10201886 -0.034020066 0.84986675 4.5161327e-39
-0.10197087 -0.032133024 0.84946668 4.4232252e-39
-0.10187483 -0.030233502 0.84866673 4.4235854e-39
-0.10181881 -0.028348647 0.84820002 4.4235854e-39
-0.10176279 -0.026465843 0.84773332 4.3317471e-39
-0.10169077 -0.024581222 0.8471334 4.3313869e-39
-0.10157873 -0.022690313 0.84620005 3.9622457e-39
-0.10153071 -0.020816637 0.8458001 3.8704074e-39
-0.10146669 -0.01894173 0.84526676 3.6860189e-39
-0.10141067 -0.017070534 0.84480006 3.6860203e-39
-0.10138666 -0.015206186 0.84460002 3.7782146e-39
-0.10128262 -0.013332187 0.84373337 3.7785761e-39
-0.10137866 -0.011484669 0.8445335 3.7785747e-39
-0.10141066 -0.0096275499 0.84480006 3.6863777e-39
-0.1015147 -0.0077747703 0.84566671 2.9484567e-39
-0.10153871 -0.0059135151 0.84586662 2.5800315e-39
-0.10164275 -0.0040545687 0.84673339 2.4867597e-39
-0.10190684 -0.0021952533 0.84893334 2.5793126e-39
-0.10209887 -0.00032601674 0.85053337 2.5796714e-39
-0.10216292 0.0015483277 0.85106659 2.7637025e-39
-0.10233097 0.0034285074 0.8524667 2.7636997e-39
-0.102451 0.0053123632 0.85346675 2.3952815e-39
-0.10272309 0.0072113005 0.85573345 2.4871198e-39
-0.10290716 0.0091124279 0.85726672 2.394927e-39
-0.1030352 0.011014319 0.85833335 2.211256e-39
-0.10315525 0.012919908 0.85933334 2.3034474e-39
-0.10333131 0.014837948 0.86080009 2.579677e-39
-0.10342733 0.016749488 0.8616001 2.6715125e-39
-0.1036514 0.018687634 0.86346668 2.6718698e-39
-0.10369942 0.020599039 0.86386675 2.6715097e-39
-0.1236064 0.085789591 1.0297014 5.807596e-39
-0.12298441 0.087614484 1.0245198 5.7150374e-39
-0.12051014 0.092485398 1.003908 5.9919817e-39
-0.1202779 0.094514102 1.0019734 5.9923404e-39
-0.10115214 -0.055159159 0.85839689 8.481614e-39
-0.10153744 -0.053471386 0.86166674 5.5295812e-39
-0.10151387 -0.051561516 0.86146671 5.7143256e-39
-0.10150602 -0.049660213 0.86140007 5.8065156e-39
-0.10141961 -0.047722243 0.86066681 5.6235551e-39
-0.10112894 -0.045695208 0.85819989 5.5309965e-39
-0.10093255 -0.04371988 0.85653341 5.4391638e-39
-0.10066545 -0.041722585 0.85426676 3.7785733e-39
-0.10046905 -0.039763261 0.85260004 4.3317513e-39
-0.1002805 -0.037814237 0.85100013 4.7934399e-39
-0.1001548 -0.035894793 0.84993351 4.7008841e-39
-0.10006841 -0.033993382 0.84920001 4.515774e-39
-0.10002913 -0.032110333 0.8488667 4.2395528e-39
-0.099934854 -0.03021213 0.84806669 4.4232252e-39
-0.099895582 -0.028333047 0.84773338 4.3313911e-39
-0.099840574 -0.026451269 0.84726661 4.1469999e-39
-0.099832721 -0.024583157 0.84720004 4.1466369e-39
-0.099746317 -0.02269746 0.84646678 3.8704102e-39
-0.099738449 -0.020831404 0.84640002 3.7782146e-39
-0.099675611 -0.01895518 0.84586674 3.5938233e-39
-0.099604897 -0.017079955 0.84526676 3.409795e-39
-0.099573486 -0.015213387 0.84500009 3.5012717e-39
-0.099494919 -0.013341667 0.84433341 3.685663e-39
-0.099557765 -0.0114892 0.84486675 3.6863805e-39
-0.099581338 -0.0096305897 0.84506679 3.5023479e-39
-0.09965989 -0.0077753831 0.84573334 2.948814e-39
-0.09966775 -0.005913049 0.84579998 2.6718684e-39
-0.099793449 -0.0040552076 0.84686673 2.4871184e-39
-0.099989846 -0.0021942188 0.84853339 2.7633424e-39
-0.1002098 -0.00032596564 0.85040003 2.7640612e-39
-0.10032764 0.0015489344 0.85140008 2.7636997e-39
-0.1004612 0.0034287754 0.85253334 2.764057e-39
-0.1006026 0.0053140237 0.85373324 2.3949228e-39
-0.100854 0.0072124242 0.85586673 2.3030901e-39
-0.10103467 0.0091138445 0.8574 2.2108944e-39
-0.10119964 0.011020306 0.85879999 2.1186988e-39
-0.10124678 0.012917904 0.85919994 2.1186974e-39
-0.10142746 0.014836797 0.86073333 2.3027327e-39
-0.10153744 0.016750783 0.86166674 2.394927e-39
-0.10165528 0.018670321 0.86266685 2.4867611e-39
-0.10176528 0.02059268 0.86360002 2.5793154e-39
-0.12267389 0.08444085 1.0410346 4.0537266e-39
-0.12102532 0.085568234 1.0270445 4.1459209e-39
-0.11914252 0.08646401 1.011067 4.4235798e-39
-0.11890684 0.08851552 1.0090668 4.6079696e-39
-0.11860831 0.090510286 1.0065333 4.8849152e-39
-0.11853762 0.092671975 1.0059334 5.0693107e-39
-0.11843548 0.094805889 1.0050668 5.3466193e-39
-0.11835693 0.096955277 1.0044 6.0841773e-39
-0.11836927 0.099177912 1.0045049 6.1763743e-39
-0.09966334 -0.055382498 0.86187243 8.4819741e-39
-0.099778317 -0.053545848 0.86286676 5.0682415e-39
-0.09967038 -0.051589441 0.86193341 5.5295756e-39
-0.099624127 -0.049667899 0.8615334 5.8979938e-39
-0.099485368 -0.047703765 0.86033338 5.622839e-39
-0.099230967 -0.045691658 0.85813332 5.6224775e-39
-0.099045955 -0.04371988 0.85653335 5.1618637e-39
-0.098714463 -0.041693285 0.85366666 3.6853057e-39
-0.098544858 -0.039744612 0.85220009 4.2384808e-39
-0.098406099 -0.037814237 0.85100007 4.5161383e-39
-0.098267324 -0.03588916 0.84980011 4.1477131e-39
-0.098228782 -0.034004055 0.84946668 3.9626044e-39
-0.098205656 -0.032125458 0.84926671 3.9626072e-39
-0.098082311 -0.030216878 0.84819996 4.1469971e-39
-0.098028347 -0.028333046 0.84773332 4.2391941e-39
-0.097982094 -0.026453352 0.84733337 4.0555203e-39
-0.097951263 -0.024579287 0.84706676 4.0548014e-39
-0.097843334 -0.022688525 0.84613347 3.6863763e-39
-0.097820207 -0.020819919 0.84593338 3.6860175e-39
-0.097758539 -0.018944722 0.84540015 3.5016277e-39
-0.097689159 -0.01707053 0.84480006 3.3172392e-39
-0.097650617 -0.015203786 0.84446675 3.4090761e-39
-0.097581238 -0.013334292 0.84386671 3.5012731e-39
-0.097612068 -0.01147923 0.84413338 3.409795e-39
-0.097712278 -0.0096298298 0.84500015 3.4094334e-39
-0.097804785 -0.0077759968 0.84580004 2.8562597e-39
-0.09783563 -0.0059149126 0.84606665 2.8558981e-39
-0.097958967 -0.0040564849 0.84713346 2.6715097e-39
-0.098120853 -0.002194219 0.84853327 2.7637025e-39
-0.098313585 -0.00032588895 0.85020006 2.76442e-39
-0.098375253 0.0015477213 0.8507334 2.7640598e-39
-0.098506324 0.0034260938 0.85186678 2.6715055e-39
-0.098598838 0.0053073848 0.8526668 2.3949228e-39
-0.098868638 0.0072051208 0.8549999 2.2105357e-39
-0.098999701 0.0091003804 0.85613334 2.026506e-39
-0.099215545 0.011010041 0.85799998 2.118696e-39
-0.099261798 0.012905876 0.85839999 2.1183373e-39
-0.099385142 0.014814964 0.85946661 2.3030873e-39
-0.099508494 0.016728751 0.86053342 2.3027299e-39
-0.09967038 0.018654447 0.86193341 2.4867597e-39
-0.099804014 0.020580491 0.86308897 2.487117e-39
-0.11898929 0.072132379 1.029 3.8707801e-39
-0.11827605 0.085217282 1.0228322 4.0537294e-39
-0.11696388 0.086499758 1.0114847 3.9615296e-39
-0.11673824 0.088556454 1.0095334 3.9615268e-39
-0.11649927 0.090594217 1.0074668 3.8693326e-39
-0.11652239 0.092831664 1.0076666 3.7775097e-39
-0.11647614 0.09501341 1.0072669 4.4228791e-39
-0.11656865 0.097309224 1.0080667 5.5302945e-39
-0.116674 0.099619538 1.0089778 5.7150444e-39
-0.0980139 -0.053620312 0.86406672 4.9767633e-39
-0.097900473 -0.051657271 0.86306673 5.3451815e-39
-0.097832404 -0.049721714 0.86246675 5.6214055e-39
-0.097650915 -0.047733333 0.86086679 5.1611448e-39
-0.097454295 -0.045744911 0.85913342 5.0696652e-39
-0.097234994 -0.043753911 0.85720003 4.7005282e-39
-0.096894696 -0.041719332 0.85420007 3.7771426e-39
-0.096698068 -0.039757039 0.8524667 4.0540896e-39
-0.096569516 -0.037829045 0.8513335 4.2399088e-39
-0.096425824 -0.035900429 0.85006678 4.1477131e-39
-0.096357778 -0.034004059 0.84946668 4.0544399e-39
-0.096319951 -0.032120418 0.84913331 3.5941848e-39
-0.096153595 -0.030197883 0.84766668 3.8704116e-39
-0.096115783 -0.028319679 0.84733337 4.238834e-39
-0.096040159 -0.02643254 0.84666669 4.1473558e-39
-0.096032605 -0.024565747 0.84660012 3.9626058e-39
-0.095956974 -0.02268316 0.84593338 3.686735e-39
-0.095934279 -0.020814996 0.84573346 3.5941792e-39
-0.095919162 -0.018949203 0.84560013 3.5016263e-39
-0.095835969 -0.017071877 0.84486675 3.4094334e-39
-0.095798165 -0.015204986 0.84453338 3.4090733e-39
-0.095752798 -0.013338506 0.84413344 3.5931086e-39
-0.09576036 -0.011480136 0.84420007 3.4094334e-39
-0.09588135 -0.0096328678 0.84526676 3.1332081e-39
-0.095964544 -0.0077778343 0.84599996 2.9484539e-39
-0.095972098 -0.005914913 0.84606659 2.9484539e-39
-0.096077964 -0.004055846 0.84700012 2.856617e-39
-0.09614601 -0.0021918057 0.84760004 2.7637011e-39
-0.09636534 -0.00032563342 0.84953338 2.5800287e-39
-0.096425839 0.0015465082 0.85006678 2.6711453e-39
-0.096524134 0.0034223399 0.85093337 2.579307e-39
-0.096637569 0.0053028194 0.85193342 2.3023656e-39
-0.09683419 0.0071938853 0.85366666 2.2098154e-39
-0.097008131 0.009090459 0.85519993 2.0265046e-39
-0.097227447 0.01099892 0.85713327 2.118696e-39
-0.097265244 0.012891843 0.8574667 2.1183359e-39
-0.097333305 0.014790832 0.85806668 2.2105343e-39
-0.097431615 0.016697647 0.85893339 2.3023684e-39
-0.097635791 0.01862848 0.86073339 2.3949228e-39
-0.097800888 0.020559026 0.86218894 2.6707922e-39
-0.1136819 0.08791247 1.0021919 4.1455621e-39
-0.11388699 0.09028247 1.0039999 3.8689753e-39
-0.11420462 0.092751823 1.0068001 3.3158141e-39
-0.11426132 0.095016561 1.0073 3.3161728e-39
-0.11439197 0.097346403 1.0084519 3.7782202e-39
-0.1146764 0.099815167 1.0109591 4.2391997e-39
-0.11980065 0.11125402 1.0561334 5.7164766e-39
-0.096310936 -0.053732011 0.86586672 4.9771235e-39
-0.096118137 -0.051721122 0.86413324 5.3455403e-39
-0.095992081 -0.049752463 0.86300009 5.5292113e-39
-0.095799282 -0.047755513 0.86126679 4.8849194e-39
-0.095613889 -0.045769755 0.85960001 4.7001694e-39
-0.095391415 -0.043774325 0.85760009 4.2395556e-39
-0.095102221 -0.041758399 0.85500008 4.1462852e-39
-0.094902001 -0.039791241 0.85320008 3.9622541e-39
-0.094731458 -0.037843857 0.85166675 4.3313883e-39
-0.094612814 -0.035922945 0.85060006 4.3313855e-39
-0.094560906 -0.034030739 0.85013336 4.1466383e-39
